ncols        154
nrows        31
xllcorner    557481.92
yllcorner    2029660.72
cellsize     3.280000000000
NODATA_value  nan
1.7913535833358764648 1.4555717706680297852 1.2729582786560058594 1.21268463134765625 1.1973885297775268555 1.2308905124664306641 1.197808384895324707 1.3635774850845336914 1.5991462469100952148 2.1161639690399169922 2.4278311729431152344 2.4237656593322753906 nan nan nan nan nan nan nan nan nan nan nan nan nan nan nan nan nan nan nan nan nan nan nan nan nan nan nan nan nan 1.1930240392684936523 1.2549322843551635742 1.007691502571105957 1.4696111679077148438 1.9409583806991577148 2.0636885166168212891 2.0937292575836181641 2.1348645687103271484 2.0161600112915039062 1.9157991409301757812 2.0069506168365478516 2.0470404624938964844 1.8078140020370483398 1.3595721721649169922 0.78105878829956054688 0.041802454739809036255 -0.29551002383232116699 -0.23646278679370880127 -0.39727169275283813477 -0.53416103124618530273 -0.78052216768264770508 -0.978839874267578125 -1.0887188911437988281 -1.1542401313781738281 -0.98829418420791625977 -1.3658248186111450195 -1.6100289821624755859 -1.7133305072784423828 -1.7943658828735351562 -1.7849631309509277344 -1.7489621639251708984 -1.6326127052307128906 -1.5364814996719360352 -1.5162982940673828125 -1.4890158176422119141 -1.4260931015014648438 -1.2172580957412719727 -0.87623423337936401367 -0.30282029509544372559 0.69485187530517578125 1.7820329666137695312 2.2215197086334228516 2.31880950927734375 2.4081127643585205078 2.3756768703460693359 2.3647248744964599609 2.2879288196563720703 2.1881985664367675781 2.0691621303558349609 1.999454498291015625 1.89499664306640625 1.8846012353897094727 1.8934957981109619141 1.8876825571060180664 1.8979322910308837891 1.9123922586441040039 1.9270813465118408203 2.0631999969482421875 2.1937444210052490234 2.2726514339447021484 2.0089995861053466797 1.4066175222396850586 0.49831044673919677734 -0.57037073373794555664 -0.91584497690200805664 -1.2153238058090209961 -1.5951735973358154297 -1.7785183191299438477 -1.9054958820343017578 -1.9546705484390258789 -1.9265362024307250977 -1.7410831451416015625 -1.7932324409484863281 -1.5031694173812866211 -1.2907265424728393555 -1.1495184898376464844 -1.268596649169921875 -1.7874816656112670898 -1.9114836454391479492 -1.9809304475784301758 -1.9321758747100830078 -1.9018707275390625 -1.9686800241470336914 -1.8050410747528076172 -1.6624087095260620117 -1.6932089328765869141 -1.7922464609146118164 -1.5800480842590332031 -1.1887276172637939453 -0.92445600032806396484 -1.3476686477661132812 -1.8946448564529418945 -1.7362575531005859375 -1.7480370998382568359 -2.2205860614776611328 -1.9707405567169189453 -1.279044032096862793 -0.84140831232070922852 -0.84120583534240722656 -0.95181369781494140625 -0.87373906373977661133 -0.67362326383590698242 -0.62015080451965332031 -0.79267740249633789062 -1.1354217529296875 -1.0689647197723388672 -0.92663085460662841797 -1.0448653697967529297 -1.0772962570190429688 -0.96190500259399414062 -1.2021821737289428711 -1.7187856435775756836 -2.0047113895416259766
1.7667292356491088867 1.455624699592590332 1.2405414581298828125 1.1789028644561767578 1.3179786205291748047 1.3374172449111938477 1.4804830551147460938 1.8836915493011474609 2.2479074001312255859 2.4402914047241210938 2.5084018707275390625 2.6019930839538574219 nan nan nan nan nan nan nan nan nan nan nan nan nan nan nan nan nan nan nan nan nan nan nan nan nan nan nan nan nan nan 1.9436097145080566406 1.9019193649291992188 2.0248723030090332031 2.2040677070617675781 2.3126442432403564453 2.3727283477783203125 2.3391783237457275391 2.2822577953338623047 2.2384705543518066406 2.3106598854064941406 2.3253445625305175781 2.2200133800506591797 1.9828381538391113281 1.678719639778137207 1.0702790021896362305 0.79142248630523681641 0.74757963418960571289 0.54034405946731567383 0.41544780135154724121 0.15798795223236083984 -0.10325495153665542603 -0.66322702169418334961 -1.1480339765548706055 -1.0043114423751831055 -1.3619065284729003906 -1.4459704160690307617 -1.5342372655868530273 -1.7020326852798461914 -1.7362853288650512695 -1.7540029287338256836 -1.6685178279876708984 -1.5378934144973754883 -1.5799853801727294922 -1.475543975830078125 -1.2128863334655761719 -0.97270148992538452148 -0.77846086025238037109 -0.45908659696578979492 0.27680692076683044434 1.4825633764266967773 2.0642590522766113281 2.1856124401092529297 2.3444976806640625 2.3977560997009277344 2.3939075469970703125 2.3348860740661621094 2.2625796794891357422 2.1384346485137939453 1.9953899383544921875 1.9370465278625488281 1.9519928693771362305 1.9380501508712768555 1.9361990690231323242 1.9407901763916015625 1.9637391567230224609 2.0153625011444091797 2.1045029163360595703 2.1877553462982177734 2.1237657070159912109 1.6078423261642456055 0.80935120582580566406 0.0059374636039137840271 -0.62629222869873046875 -0.94584178924560546875 -1.246668696403503418 -1.5967484712600708008 -1.7574877738952636719 -1.8831799030303955078 -1.9322133064270019531 -1.9172636270523071289 -1.9142259359359741211 -2.0035119056701660156 -1.6433030366897583008 -1.3920490741729736328 -1.1836671829223632812 -1.2119917869567871094 -1.6706964969635009766 -1.9066781997680664062 -1.9987838268280029297 -1.9789893627166748047 -1.8333855867385864258 -1.8222063779830932617 -1.6719157695770263672 -1.4659790992736816406 -1.6180521249771118164 -1.7091157436370849609 -1.6613560914993286133 -1.4412049055099487305 -1.3013536930084228516 -1.6904708147048950195 -1.817332148551940918 -1.4511592388153076172 -1.6926507949829101562 -2.0672960281372070312 -2.2472252845764160156 -1.933896183967590332 -1.4100335836410522461 -1.1423135995864868164 -1.199158787727355957 -1.2388771772384643555 -1.0393431186676025391 -0.81994593143463134766 -0.98640257120132446289 -1.3010195493698120117 -0.96112024784088134766 -0.67839449644088745117 -0.75108343362808227539 -0.93741834163665771484 -1.1610977649688720703 -1.5065745115280151367 -1.9120688438415527344 -2.073429107666015625
1.7259571552276611328 1.4880717992782592773 1.4261900186538696289 1.6405817270278930664 1.7653778791427612305 1.8065626621246337891 2.0274221897125244141 2.3225228786468505859 2.4332604408264160156 2.4754743576049804688 2.4950118064880371094 2.3935675621032714844 nan nan nan nan nan nan nan nan nan nan nan nan nan nan nan nan nan nan nan nan nan nan nan nan nan nan nan nan nan nan nan 2.0276968479156494141 2.1279649734497070312 2.2566046714782714844 2.40528106689453125 2.4945976734161376953 2.4589803218841552734 2.4034190177917480469 2.3826799392700195312 2.3993666172027587891 2.377349853515625 2.2911343574523925781 2.2270860671997070312 2.1118936538696289062 1.9881325960159301758 1.9208637475967407227 1.740008234977722168 1.5072389841079711914 1.4592722654342651367 1.3745980262756347656 0.90913653373718261719 0.098695322871208190918 -0.71842843294143676758 -0.63222736120223999023 -1.166045069694519043 -1.2825638055801391602 -1.4463523626327514648 -1.8171323537826538086 -1.8473573923110961914 -1.7773778438568115234 -1.5907348394393920898 -1.4897469282150268555 -1.3686175346374511719 -0.79576593637466430664 -0.51743358373641967773 -0.59111934900283813477 -0.62359452247619628906 -0.35669171810150146484 0.018668804317712783813 1.2717713117599487305 1.9076942205429077148 2.0355269908905029297 2.22336578369140625 2.4145481586456298828 2.4156818389892578125 2.3780610561370849609 2.3314960002899169922 2.2283260822296142578 2.1070733070373535156 2.0552153587341308594 1.9591135978698730469 1.9387402534484863281 1.9233571290969848633 1.9538774490356445312 2.0346629619598388672 2.1551907062530517578 2.2373545169830322266 2.2352979183197021484 2.0824103355407714844 1.5119558572769165039 0.69520175457000732422 -0.13250075280666351318 -0.71997165679931640625 -1.1046419143676757812 -1.3011175394058227539 -1.6239212751388549805 -1.8139292001724243164 -1.8563113212585449219 -1.9253132343292236328 -1.9620865583419799805 -1.9425513744354248047 -1.9844354391098022461 -1.8737978935241699219 -1.7077103853225708008 -1.5390286445617675781 -1.4473464488983154297 -1.7162077426910400391 -1.9331963062286376953 -1.9277042150497436523 -1.9104676246643066406 -1.8445285558700561523 -1.7913076877593994141 -1.7962070703506469727 -1.6990482807159423828 -1.7876114845275878906 -1.717829585075378418 -1.7616492509841918945 -1.7557579278945922852 -1.7570321559906005859 -1.8568016290664672852 -1.3651375770568847656 -1.6369165182113647461 -2.0639510154724121094 -2.2843050956726074219 -2.3834283351898193359 -2.2503185272216796875 -1.7853786945343017578 -1.2076125144958496094 -1.1624429225921630859 -1.3219109773635864258 -1.1210652589797973633 -0.97576892375946044922 -1.1520959138870239258 -1.3556755781173706055 -1.2344541549682617188 -0.9624055027961730957 -0.96889865398406982422 -1.2512686252593994141 -1.6174279451370239258 -1.8801692724227905273 -2.0435533523559570312 -2.1785945892333984375
1.9509652853012084961 1.9404166936874389648 1.9478758573532104492 2.1756794452667236328 2.2426791191101074219 2.1941645145416259766 2.4537136554718017578 2.6027865409851074219 2.5956959724426269531 2.4419312477111816406 2.2055904865264892578 2.0478839874267578125 nan nan nan nan nan nan nan nan nan nan nan nan nan nan nan nan nan nan nan nan nan nan nan nan nan nan nan nan nan nan nan nan 2.1700539588928222656 2.3230922222137451172 2.5205690860748291016 2.6361896991729736328 2.5797686576843261719 2.4725084304809570312 2.4011104106903076172 2.3576593399047851562 2.4234254360198974609 2.3532214164733886719 2.3317012786865234375 2.2897346019744873047 2.2814316749572753906 2.2516489028930664062 2.1881535053253173828 2.0866017341613769531 2.0307986736297607422 2.0484673976898193359 1.7945270538330078125 1.2029608488082885742 0.54568248987197875977 0.18763220310211181641 -0.83098018169403076172 -1.1392420530319213867 -1.2896616458892822266 -1.653390049934387207 -1.7730844020843505859 -1.5133959054946899414 -1.2528358697891235352 -1.3690249919891357422 -1.1927576065063476562 -0.5310681462287902832 -0.26771855354309082031 -0.42660951614379882812 -0.48350793123245239258 -0.38042634725570678711 -0.13013660907745361328 1.0058089494705200195 1.7427078485488891602 1.9387177228927612305 2.220500946044921875 2.4572796821594238281 2.5127248764038085938 2.4820702075958251953 2.4173777103424072266 2.328670501708984375 2.2405636310577392578 2.1320447921752929688 1.9770858287811279297 1.9678659439086914062 1.9700620174407958984 1.9453448057174682617 1.9948545694351196289 2.1063530445098876953 2.2336535453796386719 2.2632803916931152344 2.0791840553283691406 1.5552334785461425781 0.72417819499969482422 -0.11404569447040557861 -0.82499831914901733398 -1.2496057748794555664 -1.4335359334945678711 -1.6069501638412475586 -1.7450982332229614258 -1.8343083858489990234 -1.9048304557800292969 -1.9354354143142700195 -1.8169705867767333984 -1.9710510969161987305 -1.8869891166687011719 -1.7697162628173828125 -1.565240025520324707 -1.4108136892318725586 -1.5187956094741821289 -1.466437220573425293 -1.5675172805786132812 -1.8854509592056274414 -1.8262566328048706055 -1.6397243738174438477 -1.8625559806823730469 -1.9966700077056884766 -1.9602773189544677734 -1.8204178810119628906 -1.8545019626617431641 -1.8560181856155395508 -1.9970388412475585938 -1.9519189596176147461 -1.5775783061981201172 -1.9734383821487426758 -2.1531987190246582031 -2.3669223785400390625 -2.2204961776733398438 -2.2425510883331298828 -1.9569252729415893555 -1.4943267107009887695 -1.309230804443359375 -1.2345490455627441406 -1.0517023801803588867 -1.0641005039215087891 -1.1900709867477416992 -1.2803550958633422852 -1.2511279582977294922 -1.2649208307266235352 -1.4872413873672485352 -1.8798391819000244141 -2.084255218505859375 -2.2252070903778076172 -2.3745253086090087891 -2.4430441856384277344
2.2741632461547851562 2.1599802970886230469 2.0541861057281494141 2.1074473857879638672 2.3413119316101074219 2.3575527667999267578 2.6169338226318359375 2.6643049716949462891 2.4355347156524658203 2.1153826713562011719 1.8533669710159301758 1.6942279338836669922 nan nan nan nan nan nan nan nan nan nan nan nan nan nan nan nan nan nan nan nan nan nan nan nan nan nan nan nan nan nan nan nan nan nan 2.4169075489044189453 2.4582512378692626953 2.4346926212310791016 2.4028122425079345703 2.3579819202423095703 2.3002126216888427734 2.3336460590362548828 2.3633379936218261719 2.3772571086883544922 2.3424830436706542969 2.3333601951599121094 2.3839144706726074219 2.3485536575317382812 2.2962369918823242188 2.2735531330108642578 2.2891335487365722656 2.1956722736358642578 1.9338665008544921875 1.6414269208908081055 1.073216557502746582 -0.27842980623245239258 -1.1491522789001464844 -1.2226334810256958008 -1.5151190757751464844 -1.7307603359222412109 -1.5040968656539916992 -1.2655637264251708984 -1.404751896858215332 -1.1431876420974731445 -0.48678132891654968262 -0.21624220907688140869 -0.32965829968452453613 -0.31387627124786376953 -0.42356392741203308105 -0.21094308793544769287 0.64095425605773925781 1.6046220064163208008 1.9840463399887084961 2.3073287010192871094 2.4918489456176757812 2.4568071365356445312 2.3980867862701416016 2.3829035758972167969 2.3970434665679931641 2.3373425006866455078 2.2184314727783203125 2.1212265491485595703 2.1673727035522460938 2.0779256820678710938 1.9613360166549682617 1.9996013641357421875 2.2085890769958496094 2.310184478759765625 2.2782459259033203125 1.9984580278396606445 1.2951592206954956055 0.42680144309997558594 -0.42255857586860656738 -0.98403823375701904297 -1.2935720682144165039 -1.4959882497787475586 -1.6547362804412841797 -1.7783718109130859375 -1.8882623910903930664 -1.9682992696762084961 -1.8658015727996826172 -1.8785541057586669922 -2.0519533157348632812 -1.9293611049652099609 -1.771532893180847168 -1.7044095993041992188 -1.6040135622024536133 -1.5898429155349731445 -1.5085020065307617188 -1.7000229358673095703 -1.8921403884887695312 -1.8306411504745483398 -1.7131688594818115234 -1.9443312883377075195 -2.0859103202819824219 -2.0756971836090087891 -1.8161580562591552734 -1.7282502651214599609 -1.7423048019409179688 -1.9384462833404541016 -1.9503979682922363281 -1.8092637062072753906 -1.9932798147201538086 -1.9597612619400024414 -2.0045316219329833984 -1.8377901315689086914 -1.9135061502456665039 -2.0339562892913818359 -1.811047673225402832 -1.5441688299179077148 -1.288796544075012207 -1.1676720380783081055 -1.2130028009414672852 -1.2646464109420776367 -1.307805180549621582 -1.3460623025894165039 -1.6759527921676635742 -1.919483184814453125 -2.1697418689727783203 -2.3393537998199462891 -2.7190334796905517578 -2.8254790306091308594 nan
2.3532207012176513672 2.2024693489074707031 2.1013998985290527344 2.1294724941253662109 2.2965283393859863281 2.4691977500915527344 2.5627684593200683594 2.3630247116088867188 2.0751404762268066406 1.7663918733596801758 1.4808106422424316406 1.3380193710327148438 nan nan nan nan nan nan nan nan nan nan nan nan nan nan nan nan nan nan nan nan nan nan nan nan nan nan nan nan nan nan nan nan nan nan nan 2.2563920021057128906 2.2504398822784423828 2.2340450286865234375 2.1765074729919433594 2.0299241542816162109 1.9804605245590209961 2.0334212779998779297 2.1501317024230957031 2.232311248779296875 2.3295550346374511719 2.4432733058929443359 2.4486794471740722656 2.4652440547943115234 2.4655451774597167969 2.4341835975646972656 2.3890321254730224609 2.3013503551483154297 2.2000551223754882812 1.7652260065078735352 0.27803379297256469727 -1.0379805564880371094 -1.3112665414810180664 -1.4726305007934570312 -1.5208268165588378906 -1.5043919086456298828 -1.2107168436050415039 -1.1170493364334106445 -1.1343135833740234375 -0.72312164306640625 -0.27478009462356567383 -0.25870621204376220703 -0.291378021240234375 -0.41298401355743408203 -0.3410046696662902832 0.58774751424789428711 1.7418677806854248047 2.1752295494079589844 2.4011640548706054688 2.5436372756958007812 2.527057647705078125 2.4724812507629394531 2.4006509780883789062 2.3151991367340087891 2.3377285003662109375 2.2526700496673583984 2.1746301651000976562 2.181034088134765625 2.0951337814331054688 2.0654995441436767578 2.1225235462188720703 2.2456421852111816406 2.28487396240234375 2.1682264804840087891 1.5355678796768188477 0.67781072854995727539 -0.21633011102676391602 -0.78824102878570556641 -1.1304811239242553711 -1.3316364288330078125 -1.5097808837890625 -1.6437981128692626953 -1.7666724920272827148 -1.8472346067428588867 -1.9678806066513061523 -1.9499586820602416992 -1.8930952548980712891 -1.9957754611968994141 -2.0093472003936767578 -1.880360722541809082 -1.834672093391418457 -1.747130274772644043 -1.9359422922134399414 -1.95517730712890625 -2.0302634239196777344 -2.0078277587890625 -1.9168795347213745117 -1.694643855094909668 -1.6705304384231567383 -1.7748633623123168945 -1.9942268133163452148 -1.8179559707641601562 -1.7146209478378295898 -1.6500574350357055664 -1.6859046220779418945 -1.6101876497268676758 -1.5588042736053466797 -1.6104037761688232422 -1.4575759172439575195 -1.4684644937515258789 -1.3530178070068359375 -1.4072006940841674805 -1.9357846975326538086 -2.0461843013763427734 -1.7628626823425292969 -1.4607064723968505859 -1.3952003717422485352 -1.4481700658798217773 -1.4929364919662475586 -1.5546007156372070312 -1.7105585336685180664 -2.0390467643737792969 -2.2856106758117675781 -2.4053502082824707031 -2.6700303554534912109 -3.1316204071044921875 nan nan
2.3590111732482910156 2.2530431747436523438 2.1470580101013183594 2.1564257144927978516 2.3606450557708740234 2.4863643646240234375 2.2346029281616210938 1.9703888893127441406 1.6681563854217529297 1.3945115804672241211 1.1070877313613891602 0.98173952102661132812 nan nan nan nan nan nan nan nan nan nan nan nan nan nan nan nan nan nan nan nan nan nan nan nan nan nan nan nan nan nan nan nan nan nan nan nan 2.0753967761993408203 2.0520975589752197266 2.0103745460510253906 1.8412692546844482422 1.6794085502624511719 1.6182824373245239258 1.7348837852478027344 1.9651272296905517578 2.1678094863891601562 2.4037861824035644531 2.462123870849609375 2.5338532924652099609 2.62592315673828125 2.5608611106872558594 2.5263698101043701172 2.4770045280456542969 2.3899352550506591797 2.1274988651275634766 1.1582442522048950195 -0.013378510251641273499 -0.84939008951187133789 -1.1692407131195068359 -0.98624622821807861328 -0.8990713953971862793 -0.82386773824691772461 -0.74961578845977783203 -1.2001005411148071289 -1.1594491004943847656 -0.63823646306991577148 -0.31577372550964355469 -0.40624886751174926758 -0.35170572996139526367 -0.15409830212593078613 0.79698395729064941406 1.9862877130508422852 2.4087510108947753906 2.5399811267852783203 2.5735585689544677734 2.5397040843963623047 2.4934165477752685547 2.4126284122467041016 2.3079357147216796875 2.2850561141967773438 2.2354757785797119141 2.1869831085205078125 2.1786582469940185547 2.1774363517761230469 2.18877410888671875 2.2237706184387207031 2.2796361446380615234 2.2995951175689697266 1.8531326055526733398 0.99204504489898681641 0.099635452032089233398 -0.55196517705917358398 -0.89050853252410888672 -1.232644200325012207 -1.4048901796340942383 -1.4984062910079956055 -1.6198347806930541992 -1.7246876955032348633 -1.7312397956848144531 -1.9461356401443481445 -2.0493412017822265625 -1.8149943351745605469 -1.7318644523620605469 -1.8289613723754882812 -1.7971497774124145508 -1.8310772180557250977 -1.8951448202133178711 -2.1839919090270996094 -2.120082855224609375 -2.0693118572235107422 -2.0255882740020751953 -2.0059540271759033203 -1.7563109397888183594 -1.707640528678894043 -1.6240077018737792969 -1.8756320476531982422 -1.898051142692565918 -1.8303580284118652344 -1.6444542407989501953 -1.3042895793914794922 -1.1331542730331420898 -1.1194732189178466797 -1.0390098094940185547 -0.88418853282928466797 -0.81347507238388061523 -0.76496857404708862305 -0.94514960050582885742 -1.5757677555084228516 -2.0926215648651123047 -2.0333364009857177734 -1.6571389436721801758 -1.6141036748886108398 -1.7096344232559204102 -1.8298920392990112305 -1.9847661256790161133 -2.1248586177825927734 -2.1883826255798339844 -2.5851633548736572266 -2.7584123611450195312 -2.9937770366668701172 nan nan nan
2.3951871395111083984 2.2271759510040283203 2.1918692588806152344 2.1898801326751708984 2.2876861095428466797 2.0324828624725341797 1.7535347938537597656 1.5352827310562133789 1.2618665695190429688 1.0148108005523681641 0.73037248849868774414 0.61582303047180175781 nan nan nan nan nan nan nan nan nan nan nan nan nan nan nan nan nan nan nan nan nan nan nan nan nan nan nan nan nan nan nan nan nan nan nan nan 1.9446547031402587891 1.8863183259963989258 1.8471646308898925781 1.7048689126968383789 1.639222264289855957 1.5521807670593261719 1.5889772176742553711 1.6616700887680053711 1.8020763397216796875 2.0451350212097167969 2.3113243579864501953 2.4778368473052978516 2.4981241226196289062 2.4536273479461669922 2.4192078113555908203 2.5077869892120361328 2.4548916816711425781 2.3395082950592041016 1.9400594234466552734 0.76476949453353881836 -0.55321890115737915039 -0.87882608175277709961 -0.74291580915451049805 -0.61246925592422485352 -0.49063953757286071777 -0.528095245361328125 -1.0070465803146362305 -1.1871167421340942383 -0.95050317049026489258 -0.61574053764343261719 -0.53300487995147705078 -0.27921056747436523438 0.22439570724964141846 1.0848331451416015625 2.0826697349548339844 2.4527683258056640625 2.4928784370422363281 2.4716265201568603516 2.4525563716888427734 2.4493196010589599609 2.4193327426910400391 2.4087622165679931641 2.2704880237579345703 2.2631318569183349609 2.2411522865295410156 2.2498822212219238281 2.2824711799621582031 2.3210153579711914062 2.3910002708435058594 2.4567389488220214844 2.3412265777587890625 1.5847489833831787109 0.66310465335845947266 -0.18742775917053222656 -0.69842833280563354492 -1.0231546163558959961 -1.3486744165420532227 -1.4642072916030883789 -1.4692072868347167969 -1.5794249773025512695 -1.7376487255096435547 -1.7316107749938964844 -2.0139300823211669922 -2.0811839103698730469 -1.8864042758941650391 -1.7700787782669067383 -1.6577954292297363281 -1.7327479124069213867 -1.9370892047882080078 -2.0254776477813720703 -2.1333479881286621094 -2.1483106613159179688 -2.1446704864501953125 -2.1618859767913818359 -2.1750893592834472656 -1.9413315057754516602 -1.6150565147399902344 -1.5399774312973022461 -1.6790292263031005859 -1.7838920354843139648 -1.6317398548126220703 -1.2615828514099121094 -0.95607107877731323242 -0.99144023656845092773 -1.0307211875915527344 -1.0215584039688110352 -0.8849042057991027832 -0.67387908697128295898 -0.63455116748809814453 -0.86470943689346313477 -1.2942349910736083984 -1.8713605403900146484 -2.0842025279998779297 -1.8984245061874389648 -1.852046966552734375 -1.972286224365234375 -2.1229693889617919922 -2.3526966571807861328 -2.4469959735870361328 -2.4318819046020507812 -2.8321635723114013672 -2.9244945049285888672 -2.9577894210815429688 nan nan nan
2.3876771926879882812 2.3288526535034179688 2.2260429859161376953 2.1736061573028564453 1.9694229364395141602 1.5394154787063598633 1.2526394128799438477 1.0521018505096435547 0.84145361185073852539 0.59684973955154418945 0.36085391044616699219 0.23947054147720336914 nan nan nan nan nan nan nan nan nan nan nan nan nan nan nan nan nan nan nan nan nan nan nan nan nan nan nan nan nan nan nan nan nan nan nan nan nan 1.777341008186340332 1.6875742673873901367 1.6378066539764404297 1.6473928689956665039 1.5876660346984863281 1.5914417505264282227 1.5200666189193725586 1.550286412239074707 1.7078573703765869141 2.0113675594329833984 2.2532305717468261719 2.2533853054046630859 2.2791297435760498047 2.3805625438690185547 2.4673140048980712891 2.4649634361267089844 2.3069479465484619141 1.9836935997009277344 0.90548849105834960938 -0.39559891819953918457 -0.67962479591369628906 -0.62160140275955200195 -0.49372115731239318848 -0.36016830801963806152 -0.36559942364692687988 -0.73652952909469604492 -1.1966527700424194336 -1.1521202325820922852 -0.78867691755294799805 -0.48565793037414550781 -0.10706487298011779785 0.51153135299682617188 1.3374960422515869141 2.1389284133911132812 2.4712283611297607422 2.4919674396514892578 2.4843502044677734375 2.5012519359588623047 2.4741899967193603516 2.4328789710998535156 2.3937001228332519531 2.2925674915313720703 2.2853870391845703125 2.3171627521514892578 2.3206133842468261719 2.3411498069763183594 2.3236272335052490234 2.3120734691619873047 2.317218780517578125 2.1495649814605712891 1.4673501253128051758 0.43457633256912231445 -0.36854928731918334961 -0.82008355855941772461 -1.1591395139694213867 -1.3949644565582275391 -1.4922089576721191406 -1.5768554210662841797 -1.5697058439254760742 -1.6906213760375976562 -1.8813815116882324219 -2.0709047317504882812 -2.0351824760437011719 -1.9344046115875244141 -1.901060938835144043 -1.756505131721496582 -1.8084752559661865234 -1.9962556362152099609 -2.0711266994476318359 -2.0919222831726074219 -2.1793310642242431641 -2.1456606388092041016 -2.1263887882232666016 -1.9929959774017333984 -1.8839226961135864258 -1.6062803268432617188 -1.4877374172210693359 -1.5015780925750732422 -1.4792255163192749023 -1.3383250236511230469 -0.9539661407470703125 -0.81838095188140869141 -1.0634818077087402344 -1.2481322288513183594 -1.4428544044494628906 -1.3837108612060546875 -1.1069295406341552734 -0.99808931350708007812 -1.0479091405868530273 -1.3474515676498413086 -1.8356684446334838867 -2.1152551174163818359 -2.0572071075439453125 -2.0727720260620117188 -2.2031960487365722656 -2.3658099174499511719 -2.6836268901824951172 -2.7357308864593505859 -2.8161137104034423828 -3.0940294265747070312 -3.0428688526153564453 nan nan nan nan
2.2605028152465820312 2.314540863037109375 2.1831424236297607422 2.1029531955718994141 1.6659810543060302734 1.1161494255065917969 0.75152611732482910156 0.53587394952774047852 0.36773452162742614746 0.16456758975982666016 -0.035825584083795547485 -0.13688845932483673096 nan nan nan nan nan nan nan nan nan nan nan nan nan nan nan nan nan nan nan nan nan nan nan nan nan nan nan nan nan nan nan nan nan nan nan nan nan nan 1.5821691751480102539 1.5173944234848022461 1.5603562593460083008 1.5784054994583129883 1.5446119308471679688 1.4888800382614135742 1.5888129472732543945 1.6418142318725585938 1.6856112480163574219 1.8875036239624023438 2.0268943309783935547 2.1454973220825195312 2.2828273773193359375 2.3828599452972412109 2.3481273651123046875 2.2168571949005126953 1.8956959247589111328 0.9038410186767578125 -0.25526297092437744141 -0.50128293037414550781 -0.48950794339179992676 -0.38568374514579772949 -0.28915444016456604004 -0.33138865232467651367 -0.72513884305953979492 -1.2273819446563720703 -1.3354362249374389648 -0.79059416055679321289 -0.29950627684593200684 0.010023809038102626801 0.77046811580657958984 1.4622645378112792969 1.9943474531173706055 2.2718389034271240234 2.2748725414276123047 2.2854988574981689453 2.3152537345886230469 2.3513915538787841797 2.3196089267730712891 2.2820558547973632812 2.2154283523559570312 2.1813457012176513672 2.2120082378387451172 2.2209637165069580078 2.2723188400268554688 2.3429362773895263672 2.2971661090850830078 2.1575157642364501953 2.0223658084869384766 1.3306701183319091797 0.25090354681015014648 -0.47810271382331848145 -0.82619243860244750977 -1.0982779264450073242 -1.3227236270904541016 -1.4918384552001953125 -1.6095881462097167969 -1.6344085931777954102 -1.620961308479309082 -1.8953046798706054688 -2.0063593387603759766 -2.043567657470703125 -1.9897234439849853516 -1.9292920827865600586 -1.8699003458023071289 -1.9351392984390258789 -2.0236666202545166016 -1.9166082143783569336 -1.6298803091049194336 -2.1601412296295166016 -1.7208106517791748047 -1.5424839258193969727 -1.9829860925674438477 -2.0500166416168212891 -1.7859216928482055664 -1.6163009405136108398 -1.3984851837158203125 -1.1505136489868164062 -1.0450481176376342773 -0.93668133020401000977 -0.84746253490447998047 -1.1621630191802978516 -1.5333306789398193359 -1.8388266563415527344 -1.7122730016708374023 -1.3883998394012451172 -1.3288911581039428711 -1.3628405332565307617 -1.7429982423782348633 -1.9908797740936279297 -2.0607891082763671875 -2.1920375823974609375 -2.3111066818237304688 -2.4276826381683349609 -2.7190306186676025391 -2.9794688224792480469 -3.05948638916015625 -3.1754879951477050781 -3.2947223186492919922 nan nan nan nan nan
2.2991509437561035156 2.1308560371398925781 2.0391125679016113281 1.8482224941253662109 1.3348629474639892578 0.75893235206604003906 0.28531444072723388672 0.025459174066781997681 -0.15297758579254150391 -0.25859048962593078613 -0.23298317193984985352 -0.25613245368003845215 -0.2500159144401550293 nan nan nan nan nan nan nan nan nan nan nan nan nan nan nan nan nan nan nan nan nan nan nan nan nan nan nan nan nan nan nan nan nan nan nan nan nan 1.5382627248764038086 1.5270901918411254883 1.5646598339080810547 1.5511885881423950195 1.4975297451019287109 1.4965615272521972656 1.602339625358581543 1.6284180879592895508 1.6004806756973266602 1.7410894632339477539 1.8978037834167480469 2.0440950393676757812 2.1560616493225097656 2.2023768424987792969 2.1459174156188964844 1.9094176292419433594 1.7744404077529907227 0.79865491390228271484 -0.16992969810962677002 -0.35369202494621276855 -0.35297703742980957031 -0.29340800642967224121 -0.29832795262336730957 -0.48896166682243347168 -0.87196844816207885742 -1.1505991220474243164 -1.2722263336181640625 -0.82955557107925415039 -0.21163329482078552246 0.15758572518825531006 0.71468573808670043945 1.1590089797973632812 1.5446674823760986328 1.8516268730163574219 2.0767822265625 1.9920206069946289062 1.9245029687881469727 1.7709504365921020508 1.8142241239547729492 1.9606050252914428711 2.0937445163726806641 2.0430290699005126953 2.0198504924774169922 2.0499188899993896484 2.1482014656066894531 2.2606058120727539062 2.3354656696319580078 2.2205739021301269531 1.8838950395584106445 1.1170673370361328125 0.1027018427848815918 -0.60395455360412597656 -0.93278735876083374023 -1.161854863166809082 -1.3744198083877563477 -1.5176504850387573242 -1.5698111057281494141 -1.657609105110168457 -1.6555248498916625977 -1.7284494638442993164 -1.748149871826171875 -2.0879366397857666016 -2.1104450225830078125 -2.1474230289459228516 -1.9541496038436889648 -1.5444998741149902344 -1.724640965461730957 -1.8534824848175048828 -1.6894052028656005859 -2.2039589881896972656 -1.7690062522888183594 -1.6775257587432861328 -2.0894398689270019531 -2.1223649978637695312 -2.0506596565246582031 -1.8686922788619995117 -1.5327537059783935547 -1.2617044448852539062 -1.1815836429595947266 -1.2331537008285522461 -1.0919436216354370117 -1.3837283849716186523 -1.7792948484420776367 -1.8913183212280273438 -1.7559211254119873047 -1.5954781770706176758 -1.7424508333206176758 -1.8300765752792358398 -2.1892712116241455078 -2.2341182231903076172 -2.2554366588592529297 -2.4632654190063476562 -2.6070384979248046875 -2.6763498783111572266 -3.0027768611907958984 -3.2360508441925048828 -3.3735544681549072266 -3.468921661376953125 nan nan nan nan nan nan
2.0113403797149658203 1.8024007081985473633 1.6890199184417724609 1.5235534906387329102 1.015069127082824707 0.43811559677124023438 -0.055321067571640014648 -0.31607142090797424316 -0.38023048639297485352 -0.33314761519432067871 -0.31503036618232727051 -0.25928485393524169922 -0.22004850208759307861 nan nan nan nan nan nan nan nan nan nan nan nan nan nan nan nan nan nan nan nan nan nan nan nan nan nan nan nan nan nan nan nan nan nan nan nan 1.5246754884719848633 1.5186656713485717773 1.5592420101165771484 1.5557332038879394531 1.5787978172302246094 1.6213392019271850586 1.6434060335159301758 1.665598750114440918 1.7153787612915039062 1.7646809816360473633 1.8498810529708862305 1.9789322614669799805 2.0150589942932128906 2.0938851833343505859 2.1130280494689941406 1.712449193000793457 1.289508819580078125 0.88880437612533569336 0.17462037503719329834 -0.26376101374626159668 -0.32614576816558837891 -0.39535114169120788574 -0.46621426939964294434 -0.5533663630485534668 -0.76755869388580322266 -1.0865535736083984375 -1.2870362997055053711 -1.4043505191802978516 -1.1396268606185913086 -0.59582543373107910156 -0.11771860718727111816 0.28040215373039245605 0.67013490200042724609 0.99327737092971801758 1.2983993291854858398 1.6388404369354248047 1.6876227855682373047 1.1635973453521728516 0.66465383768081665039 0.55702310800552368164 0.87354254722595214844 1.3486120700836181641 1.632958531379699707 1.8397257328033447266 1.9010056257247924805 1.9858448505401611328 2.2140481472015380859 2.3623957633972167969 2.0580875873565673828 1.4344489574432373047 0.71675080060958862305 -0.1141657903790473938 -0.77631837129592895508 -1.0997698307037353516 -1.3355525732040405273 -1.5253579616546630859 -1.5770338773727416992 -1.5061852931976318359 -1.6513960361480712891 -1.686312556266784668 -1.6537009477615356445 -1.7738196849822998047 -2.0239274501800537109 -2.1068732738494873047 -2.0869452953338623047 -1.879273533821105957 -1.6266655921936035156 -1.5123627185821533203 -1.6840655803680419922 -1.9183790683746337891 -2.2076647281646728516 -1.9642021656036376953 -1.7740504741668701172 -1.8520256280899047852 -2.0686247348785400391 -2.2271256446838378906 -2.0477735996246337891 -1.7386777400970458984 -1.5493816137313842773 -1.5114139318466186523 -1.5342373847961425781 -1.3398635387420654297 -1.6326688528060913086 -2.0210311412811279297 -1.8928103446960449219 -1.7703752517700195312 -1.8317391872406005859 -2.0096838474273681641 -2.1540067195892333984 -2.2780334949493408203 -2.4917466640472412109 -2.4710936546325683594 -2.6492571830749511719 -2.8166453838348388672 -2.9833743572235107422 -3.2169992923736572266 -3.4605252742767333984 -3.6328136920928955078 -3.6908025741577148438 nan nan nan nan nan nan
1.8035265207290649414 1.4324591159820556641 1.3132482767105102539 1.1091670989990234375 0.68547010421752929688 0.12721414864063262939 -0.41865548491477966309 -0.61199057102203369141 -0.30519026517868041992 -0.23335829377174377441 -0.32045507431030273438 -0.2530224919319152832 -0.19757370650768280029 -0.20810982584953308105 nan nan nan nan nan nan nan nan nan nan nan nan nan nan nan nan nan nan nan nan nan nan nan nan nan nan nan nan nan nan nan nan nan nan nan 1.5605317354202270508 1.5055775642395019531 1.4749588966369628906 1.4825687408447265625 1.5284128189086914062 1.5756348371505737305 1.5967599153518676758 1.6079715490341186523 1.7337976694107055664 1.9059411287307739258 1.9864183664321899414 2.1064662933349609375 2.1311678886413574219 2.1809515953063964844 1.7631132602691650391 1.1796609163284301758 0.66848587989807128906 0.076454237103462219238 -0.39246013760566711426 -0.51431983709335327148 -0.61398613452911376953 -0.72316944599151611328 -0.83423691987991333008 -0.94084787368774414062 -1.0452735424041748047 -1.1758173704147338867 -1.2921205759048461914 -1.4592444896697998047 -1.2919579744338989258 -0.97509962320327758789 -0.67998296022415161133 -0.27773353457450866699 0.14861965179443359375 0.42724123597145080566 0.71641629934310913086 1.0109066963195800781 1.1075801849365234375 0.60939824581146240234 -0.093941733241081237793 -0.36877465248107910156 -0.14175102114677429199 0.39103227853775024414 0.95976859331130981445 1.4492684602737426758 1.7849564552307128906 2.0414488315582275391 2.3276753425598144531 2.1942734718322753906 1.5898941755294799805 0.90871733427047729492 0.28226104378700256348 -0.3814570307731628418 -0.90861797332763671875 -1.2063978910446166992 -1.5056469440460205078 -1.6750832796096801758 -1.6520082950592041016 -1.5504682064056396484 -1.6831371784210205078 -1.7199474573135375977 -1.6964521408081054688 -1.8003119230270385742 -2.0931699275970458984 -2.112148284912109375 -2.0627613067626953125 -1.8824980258941650391 -1.7934299707412719727 -1.6272923946380615234 -1.6662861108779907227 -1.8906304836273193359 -2.0808269977569580078 -1.8471405506134033203 -1.534039616584777832 -1.6215295791625976562 -2.0542767047882080078 -2.1820344924926757812 -1.9128290414810180664 -1.7596200704574584961 -1.4856290817260742188 -1.3794956207275390625 -1.4462811946868896484 -1.49594879150390625 -1.9570996761322021484 -2.2942197322845458984 -2.0738656520843505859 -1.9418365955352783203 -2.0874485969543457031 -2.2749047279357910156 -2.5201275348663330078 -2.4299774169921875 -2.6511971950531005859 -2.6822202205657958984 -2.8044390678405761719 -3.0040318965911865234 -3.3851196765899658203 -3.5486681461334228516 -3.6833317279815673828 -3.8189065456390380859 -3.8572850227355957031 nan nan nan nan nan nan
1.6346046924591064453 1.098973393440246582 0.93927133083343505859 0.65492773056030273438 0.31882753968238830566 -0.18053150177001953125 -0.58445441722869873047 -0.71445012092590332031 -0.56602740287780761719 -0.42350688576698303223 -0.23567062616348266602 -0.18113155663013458252 -0.19835308194160461426 -0.16761784255504608154 nan nan nan nan nan nan nan nan nan nan nan nan nan nan nan nan nan nan nan nan nan nan nan nan nan nan nan nan nan nan nan nan nan nan 1.5416898727416992188 1.5702714920043945312 1.4662588834762573242 1.4602314233779907227 1.504670262336730957 1.5354316234588623047 1.5196244716644287109 1.5543769598007202148 1.6133478879928588867 1.754778742790222168 1.9637813568115234375 2.0823123455047607422 2.2033555507659912109 2.2636599540710449219 2.2473709583282470703 1.4007434844970703125 0.53653788566589355469 0.094453647732734680176 -0.42014613747596740723 -0.64721643924713134766 -0.76476299762725830078 -0.90939348936080932617 -0.98023992776870727539 -1.0632418394088745117 -1.1076825857162475586 -1.1595000028610229492 -1.2812012434005737305 -1.3844269514083862305 -1.5841670036315917969 -1.5452570915222167969 -1.3805372714996337891 -1.2186249494552612305 -0.91837131977081298828 -0.56310701370239257812 -0.20551639795303344727 0.076169922947883605957 0.29855212569236755371 0.40485706925392150879 0.063275352120399475098 -0.46204277873039245605 -0.59944921731948852539 -0.51409059762954711914 -0.017339194193482398987 0.56460410356521606445 1.0125343799591064453 1.3335065841674804688 1.690787196159362793 2.1138222217559814453 1.9916367530822753906 1.376860499382019043 0.72349518537521362305 0.12108846008777618408 -0.51357573270797729492 -1.0222605466842651367 -1.2856158018112182617 -1.4947805404663085938 -1.7573033571243286133 -1.6681067943572998047 -1.6175206899642944336 -1.6966928243637084961 -1.55835723876953125 -1.6945912837982177734 -1.907421112060546875 -1.8582193851470947266 -2.0229809284210205078 -1.8936676979064941406 -1.6836349964141845703 -1.6256612539291381836 -1.5342921018600463867 -1.6566072702407836914 -1.8812520503997802734 -1.8763823509216308594 -1.7942465543746948242 -1.4581605195999145508 -1.4580782651901245117 -1.6371064186096191406 -1.9428701400756835938 -1.9212077856063842773 -1.7302720546722412109 -1.3387100696563720703 -1.2648131847381591797 -1.4228713512420654297 -1.8020845651626586914 -2.2903792858123779297 -2.4757747650146484375 -2.2537913322448730469 -2.1430127620697021484 -2.2139670848846435547 -2.5283386707305908203 -2.7118523120880126953 -2.6562657356262207031 -2.7112517356872558594 -2.8741166591644287109 -2.9780592918395996094 -3.2108886241912841797 -3.5581939220428466797 -3.6748685836791992188 -3.7479138374328613281 nan nan nan nan nan nan nan nan
1.5666339397430419922 0.87947130203247070312 0.53057837486267089844 0.18746769428253173828 -0.16051165759563446045 -0.64882898330688476562 -0.78153741359710693359 -0.69473862648010253906 -0.36087569594383239746 -0.19948098063468933105 -0.27250704169273376465 -0.25201237201690673828 -0.17541207373142242432 -0.095693886280059814453 -0.12816247344017028809 nan nan nan nan nan nan nan nan nan nan nan nan nan nan nan nan nan nan nan nan nan nan nan nan nan nan nan nan nan nan nan nan nan 1.5336018800735473633 1.566326141357421875 1.4589902162551879883 1.4874377250671386719 1.5702353715896606445 1.6637635231018066406 1.6993935108184814453 1.7054231166839599609 1.7372658252716064453 1.8673119544982910156 2.0479564666748046875 2.1429543495178222656 2.2546596527099609375 2.2776858806610107422 1.7991105318069458008 0.88945144414901733398 -0.153855934739112854 -0.44072052836418151855 -0.78291094303131103516 -0.84820771217346191406 -0.88628613948822021484 -0.99581825733184814453 -1.0633651018142700195 -1.1843560934066772461 -1.3304504156112670898 -1.3957555294036865234 -1.5216659307479858398 -1.6794751882553100586 -1.7636804580688476562 -1.7615945339202880859 -1.6485297679901123047 -1.4549354314804077148 -1.2154457569122314453 -1.0449384450912475586 -0.83951264619827270508 -0.62980329990386962891 -0.43510165810585021973 -0.33512201905250549316 -0.51591670513153076172 -0.778957366943359375 -0.87245637178421020508 -0.75434893369674682617 -0.28935605287551879883 0.18640682101249694824 0.53880149126052856445 0.72092545032501220703 1.0966212749481201172 1.5812327861785888672 1.8093190193176269531 1.3222537040710449219 0.68757325410842895508 0.10979770123958587646 -0.4643427729606628418 -0.95904749631881713867 -1.2758316993713378906 -1.4661195278167724609 -1.6454970836639404297 -1.7266793251037597656 -1.652891993522644043 -1.6478551626205444336 -1.3918493986129760742 -1.4516918659210205078 -1.6221278905868530273 -1.7306932210922241211 -1.8776614665985107422 -1.6737775802612304688 -1.4436277151107788086 -1.4209568500518798828 -1.4223967790603637695 -1.5903878211975097656 -1.9650595188140869141 -1.8969693183898925781 -1.761447906494140625 -1.3892807960510253906 -1.2373338937759399414 -1.1974974870681762695 -1.3991136550903320312 -1.6425716876983642578 -1.5227640867233276367 -1.2089506387710571289 -1.2035474777221679688 -1.5780259370803833008 -2.0858418941497802734 -2.4023623466491699219 -2.5612287521362304688 -2.5631883144378662109 -2.54766082763671875 -2.5475201606750488281 -2.6034460067749023438 -2.7785048484802246094 -2.9940040111541748047 -3.1717188358306884766 -3.1573011875152587891 -3.1323635578155517578 -3.2411446571350097656 -3.5612061023712158203 -3.8119871616363525391 nan nan nan nan nan nan nan nan nan
1.5000164508819580078 0.73655205965042114258 0.15525799989700317383 -0.3040892183780670166 -0.82566213607788085938 -0.8157723546028137207 -0.8042621612548828125 -0.6713549494743347168 -0.39969372749328613281 -0.20281514525413513184 -0.32660552859306335449 -0.20283710956573486328 -0.1793944239616394043 -0.10080949962139129639 -0.11646784842014312744 nan nan nan nan nan nan nan nan nan nan nan nan nan nan nan nan nan nan nan nan nan nan nan nan nan nan nan nan nan nan nan nan nan 1.5744657516479492188 1.6254433393478393555 1.5506876707077026367 1.5559798479080200195 1.6377806663513183594 1.6620898246765136719 1.7144563198089599609 1.8187695741653442383 1.8878843784332275391 2.0237231254577636719 2.1514670848846435547 2.172145843505859375 1.935688018798828125 1.494365692138671875 0.88770979642868041992 -0.21313624083995819092 -0.64872598648071289062 -0.71394377946853637695 -0.74700582027435302734 -0.8252925872802734375 -1.0160886049270629883 -1.1803307533264160156 -1.3700858354568481445 -1.4983503818511962891 -1.5674523115158081055 -1.6186143159866333008 -1.6359807252883911133 -1.6955546140670776367 -1.7893391847610473633 -1.8245494365692138672 -1.7704507112503051758 -1.6306328773498535156 -1.4800183773040771484 -1.3919129371643066406 -1.3429775238037109375 -1.2444797754287719727 -1.1137659549713134766 -1.0374062061309814453 -1.1030231714248657227 -1.0868449211120605469 -1.0751209259033203125 -0.99295216798782348633 -0.66819983720779418945 -0.24972404539585113525 0.019874701276421546936 0.095605999231338500977 0.48697987198829650879 0.98754394054412841797 1.4461157321929931641 1.1254160404205322266 0.47741177678108215332 -0.13291302323341369629 -0.67337918281555175781 -1.0956388711929321289 -1.3462102413177490234 -1.4789483547210693359 -1.6799770593643188477 -1.7708594799041748047 -1.6281565427780151367 -1.6134421825408935547 -1.2430266141891479492 -1.3181730508804321289 -1.2897130250930786133 -1.8563576936721801758 -1.8873467445373535156 -1.759905695915222168 -1.6043839454650878906 -1.615787506103515625 -1.6097314357757568359 -1.5651329755783081055 -1.9759269952774047852 -2.0396149158477783203 -1.8985332250595092773 -1.7004866600036621094 -1.4929563999176025391 -1.3163410425186157227 -1.1214005947113037109 -1.2527433633804321289 -1.3073294162750244141 -1.2533053159713745117 -1.4814506769180297852 -2.0181119441986083984 -2.2719173431396484375 -2.3416488170623779297 -2.49810028076171875 -2.6324522495269775391 -2.6947541236877441406 -2.5815629959106445312 -2.3832941055297851562 -2.6973085403442382812 -3.0968780517578125 -3.3945250511169433594 -3.5490193367004394531 -3.4377191066741943359 -3.5438296794891357422 nan nan nan nan nan nan nan nan nan nan nan
1.4333988428115844727 0.61857461929321289062 -0.24034796655178070068 -0.94416964054107666016 -0.89307612180709838867 -0.52474498748779296875 -0.23514117300510406494 -0.35918581485748291016 -0.44933873414993286133 -0.38775151968002319336 -0.2521413266658782959 -0.17873996496200561523 -0.14299724996089935303 -0.12757672369480133057 -0.11505070328712463379 -0.091207332909107208252 nan nan nan nan nan nan nan nan nan nan nan nan nan nan nan nan nan nan nan nan nan nan nan nan nan nan nan nan nan nan nan 1.4457898139953613281 1.5365135669708251953 1.6509865522384643555 1.6783059835433959961 1.6425378322601318359 1.6491682529449462891 1.6151152849197387695 1.7174612283706665039 1.8755459785461425781 1.9986566305160522461 2.1572632789611816406 2.2503302097320556641 2.0324201583862304688 1.2653906345367431641 0.57621031999588012695 -0.088994652032852172852 -0.54719024896621704102 -0.75587242841720581055 -0.91202461719512939453 -1.0018441677093505859 -1.1417257785797119141 -1.2559845447540283203 -1.3553049564361572266 -1.5610632896423339844 -1.5659883022308349609 -1.6215350627899169922 -1.6056349277496337891 -1.6212955713272094727 -1.7000008821487426758 -1.8142892122268676758 -1.8799244165420532227 -1.8589022159576416016 -1.7996551990509033203 -1.7375327348709106445 -1.6518083810806274414 -1.5918253660202026367 -1.5418369770050048828 -1.4691644906997680664 -1.4179185628890991211 -1.420678257942199707 -1.3926861286163330078 -1.3176107406616210938 -1.2495883703231811523 -1.0943239927291870117 -0.71522980928421020508 -0.58199352025985717773 -0.51265764236450195312 -0.077873766422271728516 0.41468670964241027832 0.82002013921737670898 0.70305693149566650391 0.072914466261863708496 -0.51741868257522583008 -0.92710745334625244141 -1.1227576732635498047 -1.3372414112091064453 -1.4920508861541748047 -1.5537953376770019531 -1.7837728261947631836 -1.6203660964965820312 -1.3712642192840576172 -1.0448217391967773438 -1.3088020086288452148 -1.4103704690933227539 -1.4898536205291748047 -1.9300072193145751953 -1.8804316520690917969 -1.8026614189147949219 -1.9328649044036865234 -1.8558535575866699219 -1.743874669075012207 -1.9924889802932739258 -2.0872395038604736328 -2.0340502262115478516 -2.0098004341125488281 -1.9899362325668334961 -1.8190863132476806641 -1.4253188371658325195 -1.2457358837127685547 -1.3837692737579345703 -1.718279719352722168 -2.0033247470855712891 -2.1791288852691650391 -2.0859355926513671875 -1.927584528923034668 -2.2105617523193359375 -2.4634084701538085938 -2.5896816253662109375 -2.7065699100494384766 -2.6984002590179443359 -2.9072377681732177734 -3.1527509689331054688 -3.4743559360504150391 -3.8060324192047119141 -3.8744294643402099609 nan nan nan nan nan nan nan nan nan nan nan nan
1.1989810466766357422 0.25844922661781311035 -0.6804987788200378418 -1.0466367006301879883 -0.80081653594970703125 -0.16403102874755859375 -0.20321598649024963379 -0.37016898393630981445 -0.42857146263122558594 -0.28261846303939819336 -0.21374644339084625244 -0.15202353894710540771 -0.06585808098316192627 -0.092002891004085540771 -0.10943625867366790771 -0.089945971965789794922 -0.066452205181121826172 nan nan nan nan nan nan nan nan nan nan nan nan nan nan nan nan nan nan nan nan nan nan nan nan nan nan nan nan nan 1.4199401140213012695 1.4667141437530517578 1.5264568328857421875 1.6812763214111328125 1.7037200927734375 1.6630959510803222656 1.6238828897476196289 1.7426149845123291016 1.8743841648101806641 2.0434706211090087891 2.2203226089477539062 2.3030614852905273438 2.2438116073608398438 1.44060516357421875 0.61029905080795288086 -0.052249707281589508057 -0.57376396656036376953 -0.7859427332878112793 -0.90259152650833129883 -1.0325782299041748047 -1.1962753534317016602 -1.2275890111923217773 -1.2928107976913452148 -1.4300612211227416992 -1.6157320737838745117 -1.6684304475784301758 -1.720930933952331543 -1.7640769481658935547 -1.7072312831878662109 -1.7153695821762084961 -1.8127554655075073242 -1.8576040267944335938 -1.9216963052749633789 -1.9397422075271606445 -1.9442603588104248047 -1.8907046318054199219 -1.8169350624084472656 -1.7840056419372558594 -1.7057220935821533203 -1.7223887443542480469 -1.7376499176025390625 -1.708718419075012207 -1.6518758535385131836 -1.6203291416168212891 -1.403171539306640625 -1.233445286750793457 -1.0526314973831176758 -0.87726205587387084961 -0.61598277091979980469 -0.18567220866680145264 0.11849128454923629761 0.21948741376399993896 -0.36028510332107543945 -0.78550493717193603516 -0.92308950424194335938 -1.0235733985900878906 -1.3019884824752807617 -1.5813243389129638672 -1.583628535270690918 -1.7974783182144165039 -1.750342249870300293 -1.2054717540740966797 -0.64989459514617919922 -0.99126148223876953125 -1.2650870084762573242 -1.3945610523223876953 -1.7933117151260375977 -1.8449743986129760742 -1.7578612565994262695 -1.7549191713333129883 -1.7662050724029541016 -1.3538688421249389648 -1.8638033866882324219 -2.0805656909942626953 -2.1895918846130371094 -2.1660463809967041016 -2.2012970447540283203 -2.1250884532928466797 -1.7135570049285888672 -1.3886673450469970703 -1.5908346176147460938 -1.9785500764846801758 -2.1593592166900634766 -2.0030176639556884766 -1.5211763381958007812 -1.4560223817825317383 -1.910654902458190918 -2.4396603107452392578 -2.5824735164642333984 -2.8489739894866943359 -3.3435776233673095703 -3.5147550106048583984 -3.6114604473114013672 -3.7879445552825927734 -3.9600813388824462891 nan nan nan nan nan nan nan nan nan nan nan nan nan
1.1804367303848266602 0.14797501266002655029 -0.81299561262130737305 -1.1961561441421508789 -0.87568593025207519531 -0.38774377107620239258 -0.24336850643157958984 -0.33778741955757141113 -0.34036940336227416992 -0.28727200627326965332 -0.19727629423141479492 -0.053910806775093078613 -0.14123044908046722412 -0.1167010962963104248 -0.11103277653455734253 -0.099277392029762268066 -0.065455392003059387207 -0.047460969537496566772 nan nan nan nan nan nan nan nan nan nan nan nan nan nan nan nan nan nan nan nan nan nan nan nan nan nan nan 1.3882415294647216797 1.4659540653228759766 1.5578769445419311523 1.6397308111190795898 1.7590405941009521484 1.8410545587539672852 1.7960096597671508789 1.8092889785766601562 1.9803861379623413086 1.9927533864974975586 2.0873057842254638672 2.2794053554534912109 2.4003820419311523438 1.8796271085739135742 0.76548492908477783203 -0.074898742139339447021 -0.60091328620910644531 -0.84315091371536254883 -0.85536932945251464844 -0.89653235673904418945 -1.0335965156555175781 -1.190152287483215332 -1.296039581298828125 -1.4264361858367919922 -1.4430751800537109375 -1.6148191690444946289 -1.7402063608169555664 -1.7366884946823120117 -1.8249654769897460938 -1.8249398469924926758 -1.8451588153839111328 -1.8867356777191162109 -1.9038472175598144531 -1.9857590198516845703 -1.9402074813842773438 -1.9599629640579223633 -1.976262211799621582 -1.9355856180191040039 -1.8675365447998046875 -1.8264266252517700195 -1.9026665687561035156 -1.8576333522796630859 -1.8098970651626586914 -1.8079189062118530273 -1.709766387939453125 -1.6134552955627441406 -1.5675196647644042969 -1.4096457958221435547 -1.2793179750442504883 -1.1452553272247314453 -0.92679113149642944336 -0.66205161809921264648 -0.2566693723201751709 -0.64245724678039550781 -0.81170111894607543945 -0.93226659297943115234 -1.0736873149871826172 -1.3715537786483764648 -1.7030227184295654297 -1.7039965391159057617 -1.7693091630935668945 -1.7852568626403808594 -1.6176122426986694336 -0.90695631504058837891 -0.81300693750381469727 -1.2743613719940185547 -1.2827820777893066406 -1.597594141960144043 -1.8593953847885131836 -1.6694931983947753906 -1.2496265172958374023 -1.4019858837127685547 -1.0367081165313720703 -1.7145638465881347656 -2.0524387359619140625 -2.1610293388366699219 -2.1691274642944335938 -2.2199378013610839844 -2.22985076904296875 -1.8448173999786376953 -1.3695811033248901367 -1.4696247577667236328 -1.850983738899230957 -2.0722367763519287109 -1.8720216751098632812 -1.2792177200317382812 -1.2824394702911376953 -1.8441646099090576172 -2.5138416290283203125 -2.8516097068786621094 -3.2447075843811035156 -3.7082579135894775391 -3.8306956291198730469 -3.9364483356475830078 -4.0053958892822265625 -4.0462141036987304688 nan nan nan nan nan nan nan nan nan nan nan nan nan
1.540679931640625 0.38477540016174316406 -0.79359239339828491211 -1.1858812570571899414 -0.97201704978942871094 -0.55527645349502563477 -0.36590924859046936035 -0.29325893521308898926 -0.20159709453582763672 -0.183210715651512146 -0.09116614609956741333 -0.17612119019031524658 -0.243517264723777771 -0.17479336261749267578 -0.13319395482540130615 -0.10351673513650894165 -0.069889634847640991211 -0.065350763499736785889 -0.13623803853988647461 nan nan nan nan nan nan nan nan nan nan nan nan nan nan nan nan nan nan nan nan nan nan nan nan nan 1.3732652664184570312 1.4290673732757568359 1.5351103544235229492 1.6029360294342041016 1.626032710075378418 1.8332941532135009766 1.9225748777389526367 2.0049121379852294922 2.0632328987121582031 2.1642384529113769531 2.1506152153015136719 2.3022320270538330078 2.4863829612731933594 2.0976052284240722656 1.491374969482421875 0.30450108647346496582 -0.49928832054138183594 -0.75251382589340209961 -0.78980720043182373047 -0.88310617208480834961 -1.0509033203125 -1.1782889366149902344 -1.4071382284164428711 -1.5076463222503662109 -1.6134285926818847656 -1.692731022834777832 -1.760254979133605957 -1.7596681118011474609 -1.7549299001693725586 -1.8981821537017822266 -1.8908542394638061523 -1.8701561689376831055 -1.9242017269134521484 -1.9375581741333007812 -2.0279090404510498047 -1.9286638498306274414 -1.8855615854263305664 -1.9386504888534545898 -1.9000571966171264648 -1.8434138298034667969 -1.8512732982635498047 -1.9474015235900878906 -1.9642606973648071289 -1.9402774572372436523 -2.0125324726104736328 -1.8797931671142578125 -1.8416452407836914062 -1.8287855386734008789 -1.7763326168060302734 -1.6696377992630004883 -1.4863883256912231445 -1.2778906822204589844 -1.0247356891632080078 -0.70180529356002807617 -0.80351096391677856445 -0.90703451633453369141 -1.028798222541809082 -1.1912866830825805664 -1.4539535045623779297 -1.7503569126129150391 -1.6822645664215087891 -1.6953958272933959961 -1.7229430675506591797 -1.7521066665649414062 -1.5892300605773925781 -1.4465998411178588867 -1.620617985725402832 -1.3925896883010864258 -1.4485417604446411133 -1.872509002685546875 -1.6092160940170288086 -1.0756995677947998047 -1.5115158557891845703 -1.622591853141784668 -1.8867273330688476562 -1.9415403604507446289 -1.9434442520141601562 -2.0607357025146484375 -2.1853640079498291016 -2.1695079803466796875 -1.7619320154190063477 -1.5407915115356445312 -1.3306949138641357422 -1.4138983488082885742 -1.7162616252899169922 -1.8377567529678344727 -1.5419688224792480469 -1.5270897150039672852 -2.0079255104064941406 -2.4590365886688232422 -2.9826295375823974609 -3.5818889141082763672 -3.8692746162414550781 -3.9507548809051513672 -4.0495305061340332031 -4.1144199371337890625 -4.1513094902038574219 nan nan nan nan nan nan nan nan nan nan nan nan nan
1.7762281894683837891 0.23275446891784667969 -0.88759702444076538086 -1.1813120841979980469 -0.81751281023025512695 -0.43835350871086120605 -0.32908189296722412109 -0.23900373280048370361 -0.15519888699054718018 -0.11642941087484359741 -0.22854812443256378174 -0.34724354743957519531 -0.31832626461982727051 -0.23439554870128631592 -0.19139534235000610352 -0.14105550944805145264 -0.074285089969635009766 -0.081767633557319641113 -0.13867521286010742188 nan nan nan nan nan nan nan nan nan nan nan nan nan nan nan nan nan nan nan nan nan nan nan nan 1.3609107732772827148 1.3912067413330078125 1.4395521879196166992 1.520615696907043457 1.7115384340286254883 1.760901331901550293 1.7683449983596801758 1.8304451704025268555 2.1203286647796630859 2.3915715217590332031 2.4751527309417724609 2.3948032855987548828 2.4979472160339355469 2.5898926258087158203 1.802435755729675293 0.80445998907089233398 -0.12519197165966033936 -0.68089789152145385742 -0.95967423915863037109 -1.0704821348190307617 -1.2054678201675415039 -1.2492097616195678711 -1.283356785774230957 -1.4649751186370849609 -1.5133981704711914062 -1.6697490215301513672 -1.7826547622680664062 -1.8216714859008789062 -1.8316253423690795898 -1.8392593860626220703 -1.954741358757019043 -1.9101775884628295898 -1.8411275148391723633 -1.819501042366027832 -1.8181669712066650391 -1.9135972261428833008 -1.8899005651473999023 -1.8177266120910644531 -1.9020026922225952148 -1.8935147523880004883 -1.8691082000732421875 -1.8933947086334228516 -1.9557367563247680664 -2.05796051025390625 -2.0830636024475097656 -2.0788915157318115234 -1.973285675048828125 -1.8850840330123901367 -1.8529580831527709961 -1.81449127197265625 -1.6914622783660888672 -1.5897896289825439453 -1.4798909425735473633 -1.3285558223724365234 -1.2381895780563354492 -1.1915518045425415039 -1.3100267648696899414 -1.3729094266891479492 -1.4494078159332275391 -1.6310349702835083008 -1.764680027961730957 -1.7368031740188598633 -1.6957070827484130859 -1.6734887361526489258 -1.686694025993347168 -1.7889778614044189453 -1.7977662086486816406 -1.858098149299621582 -1.7584195137023925781 -1.6596415042877197266 -1.8142461776733398438 -1.7208194732666015625 -1.6816266775131225586 -1.7124818563461303711 -1.9292657375335693359 -1.8581423759460449219 -1.8348724842071533203 -1.8489037752151489258 -1.9348378181457519531 -2.1550917625427246094 -2.1534271240234375 -1.9185711145401000977 -1.7069163322448730469 -1.469422459602355957 -1.426045536994934082 -1.7560580968856811523 -2.0277359485626220703 -2.0051243305206298828 -1.9575380086898803711 -2.2935154438018798828 -2.5725774765014648438 -3.1869008541107177734 -3.7898218631744384766 -3.98779296875 -4.0830669403076171875 -4.1825757026672363281 -4.2480158805847167969 -4.2619137763977050781 nan nan nan nan nan nan nan nan nan nan nan nan nan
1.0162035226821899414 -0.20588298141956329346 -1.0802218914031982422 -1.2499167919158935547 -0.84860908985137939453 -0.55704438686370849609 -0.38049051165580749512 -0.27384337782859802246 -0.20860083401203155518 -0.16249071061611175537 -0.27052852511405944824 -0.24979840219020843506 -0.142879486083984375 -0.13074465095996856689 -0.10024889558553695679 -0.11590173840522766113 -0.099973388016223907471 -0.21550974249839782715 -0.21961896121501922607 -0.04373022913932800293 nan nan nan nan nan nan nan nan nan nan nan nan nan nan nan nan nan 1.5219821929931640625 1.5003106594085693359 1.4761331081390380859 1.4534515142440795898 1.4330363273620605469 1.4233698844909667969 1.3985788822174072266 1.5440055131912231445 1.5728615522384643555 1.7303924560546875 1.8809229135513305664 1.9782828092575073242 2.0424852371215820312 2.1825244426727294922 2.3331613540649414062 2.4479784965515136719 2.5450661182403564453 2.5630061626434326172 2.6145949363708496094 2.4431188106536865234 1.6122380495071411133 0.67565101385116577148 -0.1484975665807723999 -0.70453721284866333008 -1.0511553287506103516 -1.2113687992095947266 -1.3384318351745605469 -1.3788480758666992188 -1.3662590980529785156 -1.5321214199066162109 -1.6864020824432373047 -1.8485512733459472656 -1.863250732421875 -1.9039428234100341797 -1.8602957725524902344 -1.8337942361831665039 -1.8357335329055786133 -1.8440287113189697266 -1.8646537065505981445 -1.891367793083190918 -1.2045594453811645508 -1.6100046634674072266 -1.8604490756988525391 -1.8658974170684814453 -1.8567001819610595703 -1.877170562744140625 -1.8768856525421142578 -1.8740587234497070312 -1.9176458120346069336 -2.0418949127197265625 -2.0581727027893066406 -2.06087493896484375 -1.980198979377746582 -1.9723104238510131836 -1.9667191505432128906 -1.8374905586242675781 -1.8112072944641113281 -1.7450441122055053711 -1.6995823383331298828 -1.6577463150024414062 -1.5870937108993530273 -1.5421593189239501953 -1.6045655012130737305 -1.6878519058227539062 -1.6694965362548828125 -1.6940163373947143555 -1.8183944225311279297 -1.7171723842620849609 -1.6990973949432373047 -1.6729012727737426758 -1.4969983100891113281 -1.6975058317184448242 -1.7666416168212890625 -1.8781108856201171875 -1.9929784536361694336 -1.8105633258819580078 -1.853676915168762207 -1.9643840789794921875 -2.0826930999755859375 -2.0791299343109130859 -1.8716350793838500977 -1.7743117809295654297 -1.7269104719161987305 -1.9434167146682739258 -2.073986053466796875 -2.1450774669647216797 -2.0142328739166259766 -1.7587767839431762695 -1.6667379140853881836 -1.5329695940017700195 -1.5439176559448242188 -1.7879897356033325195 -1.9701620340347290039 -2.1186046600341796875 -2.2003197669982910156 -2.4987676143646240234 -3.0052819252014160156 -3.5911500453948974609 -3.9428889751434326172 -4.1191267967224121094 -4.2329158782958984375 -4.330516815185546875 -4.3563380241394042969 -4.3555536270141601562 nan nan nan nan nan nan nan nan nan nan nan nan nan
0.17088595032691955566 -0.76101815700531005859 -1.2817031145095825195 -1.282526850700378418 -0.95705085992813110352 -0.69513094425201416016 -0.48511943221092224121 -0.32513162493705749512 -0.22861339151859283447 -0.18416193127632141113 -0.23770304024219512939 -0.15330572426319122314 -0.095837116241455078125 -0.051726922392845153809 -0.13823328912258148193 -0.32636499404907226562 -0.43504732847213745117 -0.51209902763366699219 -0.19992291927337646484 0.095187954604625701904 0.2147572934627532959 nan nan nan nan nan nan nan nan nan nan nan nan nan 1.4036302566528320312 1.3559596538543701172 1.4421823024749755859 1.4910722970962524414 1.4770643711090087891 1.4562630653381347656 1.4086719751358032227 1.3968127965927124023 1.4925808906555175781 1.5884453058242797852 1.7455812692642211914 1.9445573091506958008 2.1573438644409179688 2.2636530399322509766 2.2956678867340087891 2.3543226718902587891 2.3558506965637207031 2.4589293003082275391 2.4755675792694091797 2.60326385498046875 2.6948723793029785156 2.7067587375640869141 2.2459042072296142578 1.3573218584060668945 0.44835573434829711914 -0.28508669137954711914 -0.81788975000381469727 -1.0948810577392578125 -1.2115156650543212891 -1.4392156600952148438 -1.6115627288818359375 -1.5588396787643432617 -1.6408498287200927734 -1.8218014240264892578 -1.9767560958862304688 -1.8929446935653686523 -1.7898933887481689453 -1.8792802095413208008 -1.8053983449935913086 -1.7206883430480957031 -1.7671599388122558594 -1.9120535850524902344 -1.9400011301040649414 -1.6305942535400390625 -1.7737772464752197266 -1.7435917854309082031 -1.8081947565078735352 -1.9340833425521850586 -1.9173371791839599609 -1.8547880649566650391 -1.7571357488632202148 -1.7486649751663208008 -1.6819082498550415039 -1.7967600822448730469 -1.9640004634857177734 -1.9351950883865356445 -1.9909998178482055664 -1.9469865560531616211 -1.8923522233963012695 -1.9213413000106811523 -1.8809115886688232422 -1.8431495428085327148 -1.7614507675170898438 -1.6842434406280517578 -1.6913267374038696289 -1.7306280136108398438 -1.7864605188369750977 -1.7583329677581787109 -1.7155625820159912109 -1.8098589181900024414 -1.8080209493637084961 -1.717326045036315918 -1.7894500494003295898 -1.7614314556121826172 -1.9007406234741210938 -1.925383448600769043 -2.0513904094696044922 -2.1562528610229492188 -1.9841800928115844727 -1.9213956594467163086 -2.0844252109527587891 -2.2348935604095458984 -2.2101414203643798828 -1.9766403436660766602 -1.7993416786193847656 -1.6766184568405151367 -1.880116581916809082 -2.1179258823394775391 -2.1461501121520996094 -1.890871882438659668 -1.7578096389770507812 -1.5972917079925537109 -1.4036582708358764648 -1.4415451288223266602 -1.5603736639022827148 -1.5624138116836547852 -1.8074172735214233398 -2.3263986110687255859 -2.8006186485290527344 -3.1833219528198242188 -3.6891634464263916016 -3.9815959930419921875 -4.1449675559997558594 -4.3267235755920410156 -4.4347314834594726562 -4.4400620460510253906 -4.4392809867858886719 nan nan nan nan nan nan nan nan nan nan nan nan nan
-0.21793836355209350586 -1.1483139991760253906 -1.3914613723754882812 -1.2664630413055419922 -0.9681561589241027832 -0.81844002008438110352 -0.62240332365036010742 -0.39456975460052490234 -0.246492043137550354 -0.23202416300773620605 -0.22369647026062011719 -0.13619945943355560303 -0.098387278616428375244 -0.091331414878368377686 -0.329708099365234375 -0.57502686977386474609 -0.58455097675323486328 -0.21042661368846893311 0.10076145082712173462 0.27480196952819824219 0.41583818197250366211 0.51169884204864501953 0.60788595676422119141 0.71397620439529418945 0.81661385297775268555 nan nan nan nan 1.4055221080780029297 1.3447748422622680664 1.3102091550827026367 1.3044470548629760742 1.3154351711273193359 1.3406302928924560547 1.3741178512573242188 1.4417192935943603516 1.474779963493347168 1.4461698532104492188 1.4495280981063842773 1.4523741006851196289 1.6744798421859741211 1.8930457830429077148 2.006626129150390625 2.1462697982788085938 2.2808825969696044922 2.3764157295227050781 2.4863269329071044922 2.5503504276275634766 2.5625233650207519531 2.5281498432159423828 2.5108318328857421875 2.6382725238800048828 2.6625680923461914062 2.4261028766632080078 2.1601202487945556641 1.830338597297668457 1.0224502086639404297 0.10693786293268203735 -0.61831849813461303711 -1.0480115413665771484 -1.2506967782974243164 -1.356627345085144043 -1.4921967983245849609 -1.6253715753555297852 -1.612341761589050293 -1.7047623395919799805 -1.8500750064849853516 -1.9699219465255737305 -1.8125405311584472656 -1.77704620361328125 -1.8737010955810546875 -1.749908447265625 -1.6272351741790771484 -1.602120518684387207 -1.7160277366638183594 -1.6900235414505004883 -1.6433011293411254883 -1.7647662162780761719 -1.7597147226333618164 -1.8379390239715576172 -2.0677688121795654297 -1.909389495849609375 -1.6280384063720703125 -1.6586637496948242188 -1.4289399385452270508 -1.7112326622009277344 -1.799195408821105957 -1.866559147834777832 -1.8992278575897216797 -1.8686965703964233398 -1.9456317424774169922 -1.9401125907897949219 -1.9326723814010620117 -1.8729308843612670898 -1.8010973930358886719 -1.7659602165222167969 -1.7331506013870239258 -1.7730590105056762695 -1.8051552772521972656 -1.8143912553787231445 -1.7883611917495727539 -1.766592860221862793 -1.8147821426391601562 -1.8913689851760864258 -1.9117797613143920898 -1.9621247053146362305 -2.0589635372161865234 -2.1706068515777587891 -2.1766998767852783203 -2.275135040283203125 -2.2875783443450927734 -2.1908710002899169922 -2.2181653976440429688 -2.2337210178375244141 -2.3216061592102050781 -2.1702022552490234375 -2.0238416194915771484 -1.9561501741409301758 -1.8777470588684082031 -1.8661060333251953125 -2.1262211799621582031 -2.152370452880859375 -1.8631289005279541016 -1.8646907806396484375 -1.7498922348022460938 -1.6125606298446655273 -1.4909040927886962891 -1.2619932889938354492 -1.2216523885726928711 -1.7788158655166625977 -2.4208579063415527344 -2.9664053916931152344 -3.4232845306396484375 -3.8189656734466552734 -4.0178771018981933594 -4.1815652847290039062 -4.3542280197143554688 -4.4789824485778808594 -4.5221438407897949219 -4.5230073928833007812 nan nan nan nan nan nan nan nan nan nan nan nan nan
-0.088832452893257141113 -1.0762540102005004883 -1.3977198600769042969 -1.2384930849075317383 -0.90581667423248291016 -0.69256561994552612305 -0.70094692707061767578 -0.49371129274368286133 -0.33773010969161987305 -0.3213335573673248291 -0.21048188209533691406 -0.12920564413070678711 -0.11717282235622406006 -0.19067367911338806152 -0.41794231534004211426 -0.36679500341415405273 -0.064207434654235839844 0.10628326982259750366 0.28261512517929077148 0.44830292463302612305 0.60923665761947631836 0.73791837692260742188 0.81952637434005737305 0.89704906940460205078 1.006882786750793457 1.1306089162826538086 1.2270274162292480469 1.2900960445404052734 1.3610880374908447266 1.407126307487487793 1.4016580581665039062 1.3951525688171386719 1.4085190296173095703 1.4232977628707885742 1.5145508050918579102 1.5320662260055541992 1.542626500129699707 1.5581636428833007812 1.7121030092239379883 1.9001848697662353516 1.9808853864669799805 2.1117100715637207031 2.3505697250366210938 2.4344182014465332031 2.5622766017913818359 2.5887055397033691406 2.6108229160308837891 2.6571547985076904297 2.7002751827239990234 2.6121909618377685547 2.4853377342224121094 2.3797163963317871094 2.1878254413604736328 2.0106585025787353516 1.7267857789993286133 1.4039008617401123047 1.2261365652084350586 0.64173948764801025391 -0.22390311956405639648 -0.90402770042419433594 -1.2851378917694091797 -1.4488958120346069336 -1.4589787721633911133 -1.3968290090560913086 -1.6614993810653686523 -1.2695342302322387695 -1.6940590143203735352 -1.8943622112274169922 -1.9674888849258422852 -1.9505002498626708984 -1.8524827957153320312 -1.8905853033065795898 -1.8037066459655761719 -1.7156209945678710938 -1.6161911487579345703 -1.6321035623550415039 -1.6307631731033325195 -1.4955157041549682617 -1.5949435234069824219 -1.7717063426971435547 -1.9322872161865234375 -2.0400197505950927734 -1.8216371536254882812 -1.732313990592956543 -1.7198805809020996094 -0.9499213099479675293 -1.5726671218872070312 -1.8819657564163208008 -1.8762143850326538086 -1.9151577949523925781 -1.8557157516479492188 -1.9005800485610961914 -1.9063103199005126953 -1.9437932968139648438 -1.856928706169128418 -1.7700017690658569336 -1.7855091094970703125 -1.7848110198974609375 -1.8521126508712768555 -1.8978269100189208984 -1.8224952220916748047 -1.9114533662796020508 -1.9264217615127563477 -1.9094083309173583984 -1.9850863218307495117 -2.0645606517791748047 -2.0915558338165283203 -2.1039748191833496094 -2.1514523029327392578 -2.2165331840515136719 -2.3570659160614013672 -2.2445816993713378906 -2.2868888378143310547 -2.3514726161956787109 -2.3289942741394042969 -2.2989394664764404297 -2.0724070072174072266 -1.909384608268737793 -1.9924939870834350586 -2.0450708866119384766 -2.0374920368194580078 -2.1530163288116455078 -2.18310546875 -1.8967118263244628906 -1.8953560590744018555 -1.8945707082748413086 -1.718794703483581543 -1.4983767271041870117 -1.2707989215850830078 -1.3367841243743896484 -1.8756736516952514648 -2.4699347019195556641 -2.9697449207305908203 -3.5799589157104492188 -3.9105439186096191406 -4.0181488990783691406 -4.2057166099548339844 -4.3619399070739746094 -4.4946990013122558594 -4.5838422775268554688 -4.6067318916320800781 nan nan nan nan nan nan nan nan nan nan nan nan nan
0.081381611526012420654 -1.0048151016235351562 -1.3919054269790649414 -1.289420008659362793 -0.94708871841430664062 -0.62617528438568115234 -0.56155729293823242188 -0.59640347957611083984 -0.54536241292953491211 -0.44438967108726501465 -0.29342409968376159668 -0.41350135207176208496 -0.51796609163284301758 -0.20666016638278961182 -0.28881072998046875 -0.1597070544958114624 0.17763315141201019287 0.40356522798538208008 0.45570984482765197754 0.62143677473068237305 0.7829106450080871582 0.94386786222457885742 1.0576131343841552734 1.1331573724746704102 1.2126196622848510742 1.2849063873291015625 1.291518092155456543 1.2913508415222167969 1.3043302297592163086 1.3327811956405639648 1.4777212142944335938 1.5583593845367431641 1.5553416013717651367 1.5562192201614379883 1.6606364250183105469 1.7884136438369750977 1.9118425846099853516 2.1063525676727294922 2.0815651416778564453 2.1655621528625488281 2.3368437290191650391 2.5381925106048583984 2.6950414180755615234 2.7206063270568847656 2.7021665573120117188 2.7562234401702880859 2.7221589088439941406 2.5809040069580078125 2.4143512248992919922 1.8232897520065307617 1.8413052558898925781 1.674940943717956543 1.3249260187149047852 1.1594806909561157227 0.90695387125015258789 0.63092732429504394531 0.45464712381362915039 0.13760106265544891357 -0.57117402553558349609 -1.1591933965682983398 -1.4290579557418823242 -1.4536200761795043945 -1.229155421257019043 -1.1232023239135742188 -1.6829725503921508789 -1.4019957780838012695 -1.5969818830490112305 -1.6901854276657104492 -1.5410716533660888672 -1.8769705295562744141 -1.4319137334823608398 -1.9142206907272338867 -1.9081320762634277344 -1.8594582080841064453 -1.8056828975677490234 -1.8198179006576538086 -1.6768974065780639648 -1.4274309873580932617 -1.6157714128494262695 -1.95856475830078125 -2.0259211063385009766 -2.0261206626892089844 -1.9780229330062866211 -1.8725007772445678711 -1.9477744102478027344 -1.5472991466522216797 -1.5914891958236694336 -1.5370439291000366211 -1.6627261638641357422 -1.157900691032409668 -1.7406034469604492188 -1.925876617431640625 -1.8426787853240966797 -1.769002079963684082 -1.7940897941589355469 -1.7533365488052368164 -1.820975184440612793 -1.8410292863845825195 -1.9438345432281494141 -1.9953148365020751953 -1.8965536355972290039 -2.0126316547393798828 -2.0566277503967285156 -2.0657050609588623047 -2.1054298877716064453 -2.1446111202239990234 -2.2334988117218017578 -2.2151622772216796875 -2.2492296695709228516 -2.351165771484375 -2.3527133464813232422 -2.3388996124267578125 -2.400699615478515625 -2.4004642963409423828 -2.3817932605743408203 -2.3683254718780517578 -2.1269159317016601562 -1.8633273839950561523 -1.9460895061492919922 -2.2060968875885009766 -2.2846887111663818359 -2.2590186595916748047 -2.2006959915161132812 -2.1244070529937744141 -2.0102684497833251953 -1.8457030057907104492 -1.6253563165664672852 -1.6673601865768432617 -1.6367778778076171875 -1.6830306053161621094 -2.0576055049896240234 -2.4845404624938964844 -2.8652801513671875 -3.4644765853881835938 -3.8766381740570068359 -4.0198006629943847656 -4.2309131622314453125 -4.3773131370544433594 -4.5076241493225097656 -4.6203050613403320312 -4.6754827499389648438 nan nan nan nan nan nan nan nan nan nan nan nan nan
0.3473758399486541748 -0.90716326236724853516 -1.3949609994888305664 -1.4749417304992675781 -1.2109608650207519531 -0.77416920661926269531 -0.58301824331283569336 -0.75162267684936523438 -0.80929356813430786133 -0.72395658493041992188 -0.83182191848754882812 -0.98118895292282104492 -0.82465863227844238281 -0.48419389128684997559 -0.52549958229064941406 -0.24841713905334472656 0.32189795374870300293 0.67870277166366577148 0.77288830280303955078 0.78890699148178100586 0.95589691400527954102 1.1178636550903320312 1.2784192562103271484 1.3745218515396118164 1.3732982873916625977 1.3138835430145263672 1.3369065523147583008 1.4353445768356323242 1.4669896364212036133 1.4965308904647827148 1.7295550107955932617 1.9464976787567138672 2.0228390693664550781 2.0850965976715087891 2.0908074378967285156 2.1481711864471435547 2.2516012191772460938 2.31926727294921875 2.3243937492370605469 2.3653118610382080078 2.4558763504028320312 2.6005644798278808594 2.7284083366394042969 2.7531766891479492188 2.7266266345977783203 2.7097692489624023438 2.490081787109375 1.7689366340637207031 0.82152783870697021484 0.56374466419219970703 1.0336402654647827148 0.93361318111419677734 0.40794962644577026367 0.28219637274742126465 0.068953111767768859863 -0.13940636813640594482 -0.33626675605773925781 -0.47464638948440551758 -1.0229231119155883789 -1.4727380275726318359 -1.5250599384307861328 -1.620128631591796875 -1.6777694225311279297 -1.5193711519241333008 -1.8913542032241821289 -1.7676218748092651367 -1.7627826929092407227 -1.6917172670364379883 -1.2910119295120239258 -1.4216378927230834961 -0.86887037754058837891 -1.9227991104125976562 -1.9307727813720703125 -1.8213117122650146484 -1.7696976661682128906 -1.7678549289703369141 -1.5721024274826049805 -1.5657515525817871094 -1.7553730010986328125 -2.0203969478607177734 -2.0337328910827636719 -2.0262875556945800781 -2.0209619998931884766 -1.9752118587493896484 -1.9151718616485595703 -1.6619943380355834961 -1.7868840694427490234 -1.6364185810089111328 -1.6291991472244262695 -1.5835007429122924805 -1.8520444631576538086 -2.0260815620422363281 -2.0122148990631103516 -1.9000724554061889648 -1.7801754474639892578 -1.7667921781539916992 -1.9052578210830688477 -1.9176093339920043945 -2.0397627353668212891 -2.0218172073364257812 -1.9584412574768066406 -2.0810182094573974609 -2.1739666461944580078 -2.1289544105529785156 -2.0396306514739990234 -2.0132045745849609375 -2.1219077110290527344 -2.1235849857330322266 -2.1823546886444091797 -2.3198270797729492188 -2.3784489631652832031 -2.371639251708984375 -2.3192386627197265625 -2.3503344058990478516 -2.3584318161010742188 -2.3622345924377441406 -2.2340273857116699219 -2.1043527126312255859 -2.1412904262542724609 -2.3293881416320800781 -2.3229081630706787109 -2.3212065696716308594 -2.2536005973815917969 -2.2721204757690429688 -2.1361825466156005859 -1.9381508827209472656 -1.8381437063217163086 -1.9784641265869140625 -1.9417476654052734375 -1.8768049478530883789 -2.2110173702239990234 -2.6063163280487060547 -2.9379868507385253906 -3.534290313720703125 -3.9063649177551269531 -4.0890812873840332031 -4.2858252525329589844 -4.4042263031005859375 -4.5202765464782714844 -4.5906200408935546875 -4.6261196136474609375 nan nan nan nan nan nan nan nan nan nan nan nan nan
0.56806772947311401367 -0.86502033472061157227 -1.4215538501739501953 -1.4805438518524169922 -1.3796480894088745117 -1.2332732677459716797 -0.95019060373306274414 -0.92630058526992797852 -0.92980784177780151367 -1.0004507303237915039 -1.1632802486419677734 -1.2931845188140869141 -1.0788209438323974609 -0.7929255366325378418 -0.70353925228118896484 -0.2975031733512878418 0.30208951234817504883 0.87969404458999633789 1.0905115604400634766 1.0435248613357543945 1.1215379238128662109 1.2898514270782470703 1.4476494789123535156 1.5624320507049560547 1.2847177982330322266 1.3341157436370849609 1.5799831151962280273 1.649677276611328125 1.8151096105575561523 2.0154128074645996094 2.1858968734741210938 2.3397901058197021484 2.4041936397552490234 2.3505094051361083984 2.3866124153137207031 2.4748177528381347656 2.3371753692626953125 2.3462190628051757812 2.4381017684936523438 2.5653829574584960938 2.6191129684448242188 2.6767892837524414062 2.7512593269348144531 2.8885445594787597656 2.7725908756256103516 2.388824462890625 1.9001351594924926758 1.2646292448043823242 0.29796877503395080566 -0.16192904114723205566 0.23450596630573272705 0.19779556989669799805 -0.45987838506698608398 -0.61333292722702026367 -0.80780756473541259766 -0.94948995113372802734 -1.1522109508514404297 -1.2881056070327758789 -1.5102158784866333008 -1.8468755483627319336 -1.5473705530166625977 -1.0726565122604370117 -1.6753427982330322266 -1.8762538433074951172 -2.0705981254577636719 -2.051311492919921875 -1.9944033622741699219 -1.8969670534133911133 -1.7356356382369995117 -1.7626510858535766602 -1.4085679054260253906 -1.8238986730575561523 -1.6186805963516235352 -1.5700011253356933594 -1.7386358976364135742 -1.6956083774566650391 -1.659380793571472168 -1.7992417812347412109 -1.951873779296875 -2.0319819450378417969 -1.9626581668853759766 -1.8380181789398193359 -1.7106778621673583984 -1.6414835453033447266 -1.8632757663726806641 -1.3613884449005126953 -1.4630563259124755859 -1.255391240119934082 -1.2655037641525268555 -1.6558252573013305664 -1.810252070426940918 -2.0972647666931152344 -2.0998308658599853516 -2.0475838184356689453 -1.9487529993057250977 -1.8508392572402954102 -1.8918445110321044922 -1.9364421367645263672 -2.0092291831970214844 -2.0189657211303710938 -2.0047760009765625 -2.1521503925323486328 -2.2950212955474853516 -2.2515585422515869141 -2.1802942752838134766 -2.0970430374145507812 -2.1172399520874023438 -2.1047382354736328125 -2.2426240444183349609 -2.4253606796264648438 -2.4774205684661865234 -2.3626687526702880859 -2.3639237880706787109 -2.4190766811370849609 -2.4048793315887451172 -2.3475928306579589844 -2.2631707191467285156 -2.3066442012786865234 -2.3444414138793945312 -2.3704051971435546875 -2.3263580799102783203 -2.1537382602691650391 -2.1360223293304443359 -2.2886443138122558594 -2.297698974609375 -2.2029056549072265625 -2.1471741199493408203 -2.1208155155181884766 -1.9707018136978149414 -1.7715768814086914062 -2.1035983562469482422 -2.7188286781311035156 -3.1338903903961181641 -3.4670097827911376953 -3.8241128921508789062 -4.0639281272888183594 -4.2553358078002929688 -4.4218835830688476562 -4.4919681549072265625 -4.5362296104431152344 -4.5607161521911621094 nan nan nan nan nan nan nan nan nan nan nan nan nan
0.27543148398399353027 -0.96643155813217163086 -1.4755997657775878906 -1.4597258567810058594 -1.3816885948181152344 -1.2956113815307617188 -1.3154549598693847656 -1.2923364639282226562 -1.2619758844375610352 -1.3162100315093994141 -1.3179497718811035156 -1.3469330072402954102 -1.2961012125015258789 -1.1065607070922851562 -0.86160033941268920898 -0.34524974226951599121 0.26389580965042114258 0.92206799983978271484 1.4016948938369750977 1.419864654541015625 1.3265182971954345703 1.4164067506790161133 1.5477942228317260742 1.5103467702865600586 1.3995060920715332031 1.5529302358627319336 2.0374910831451416016 2.3467736244201660156 2.3733224868774414062 2.4911925792694091797 2.5744879245758056641 2.5429956912994384766 2.5932416915893554688 2.5295064449310302734 2.6873071193695068359 2.8071906566619873047 2.5053129196166992188 2.3113667964935302734 2.5401837825775146484 2.7418160438537597656 2.8190100193023681641 2.8359172344207763672 2.3680951595306396484 2.1806056499481201172 1.9498959779739379883 1.61447906494140625 1.1234031915664672852 0.72568804025650024414 -0.0047250678762793540955 -0.58145695924758911133 -0.49140113592147827148 -0.89456164836883544922 -1.3840333223342895508 -1.4284776449203491211 -1.5364248752593994141 -1.5445624589920043945 -1.5824272632598876953 -1.7991485595703125 -1.8857319355010986328 -1.7542004585266113281 -1.2937841415405273438 -1.1375172138214111328 -1.8247603178024291992 -1.783964991569519043 -1.9767233133316040039 -2.0087749958038330078 -2.0621013641357421875 -2.0608093738555908203 -1.4103063344955444336 -1.5316010713577270508 -1.3314195871353149414 -1.483172297477722168 -1.6026959419250488281 -1.3184068202972412109 -1.60962677001953125 -1.6024149656295776367 -1.6087440252304077148 -1.7358404397964477539 -1.882015228271484375 -2.0257995128631591797 -1.9820814132690429688 -1.8383806943893432617 -1.4773833751678466797 -1.3934646844863891602 -1.9052046537399291992 -1.4509180784225463867 -1.5622233152389526367 -1.2592350244522094727 -1.5138150453567504883 -1.8240461349487304688 -1.9211332798004150391 -2.0134770870208740234 -1.8522726297378540039 -1.8480117321014404297 -1.9651544094085693359 -1.9503748416900634766 -1.9703390598297119141 -1.9449400901794433594 -1.9219754934310913086 -2.0134994983673095703 -2.0450141429901123047 -2.2280819416046142578 -2.3352932929992675781 -2.3498058319091796875 -2.3280253410339355469 -2.2196271419525146484 -2.1588056087493896484 -2.2063796520233154297 -2.3039822578430175781 -2.4322600364685058594 -2.4392251968383789062 -2.4122889041900634766 -2.4107987880706787109 -2.4402525424957275391 -2.4067797660827636719 -2.2948343753814697266 -2.2805745601654052734 -2.3598473072052001953 -2.3902149200439453125 -2.3410036563873291016 -2.1735999584197998047 -1.8793772459030151367 -1.8821172714233398438 -2.0958852767944335938 -2.3369686603546142578 -2.2786448001861572266 -2.1907558441162109375 -1.8755142688751220703 -1.6482564210891723633 -1.5582741498947143555 -1.6870920658111572266 -2.4072279930114746094 -3.0176784992218017578 -3.4397361278533935547 -3.8236851692199707031 -4.0529675483703613281 -4.2844648361206054688 -4.4405431747436523438 -4.4764623641967773438 -4.5236582756042480469 -4.5470099449157714844 nan nan nan nan nan nan nan nan nan nan nan nan nan
0.12654507160186767578 -1.1987940073013305664 -1.3858984708786010742 -1.2093753814697265625 -1.2523093223571777344 -1.3158390522003173828 -1.2030795812606811523 -1.271864771842956543 -1.358857274055480957 -1.3433994054794311523 -1.3018393516540527344 -1.2444607019424438477 -1.2921166419982910156 -1.2196407318115234375 -0.91081231832504272461 -0.38677963614463806152 0.22533771395683288574 0.89553177356719970703 1.5194237232208251953 1.7798136472702026367 1.6316896677017211914 1.4446533918380737305 1.5152392387390136719 1.511463165283203125 1.6358993053436279297 2.0754897594451904297 2.5181128978729248047 2.6376821994781494141 2.6328704357147216797 2.6842179298400878906 2.7592480182647705078 2.8970038890838623047 3.0086724758148193359 3.0705039501190185547 3.0974202156066894531 3.1349251270294189453 2.3557081222534179688 1.3924968242645263672 1.5350464582443237305 2.6425218582153320312 2.8826632499694824219 1.9729166030883789062 1.177637934684753418 0.92226320505142211914 0.79890805482864379883 0.51848787069320678711 0.29425024986267089844 -0.040596466511487960815 -0.54129838943481445312 -1.2649370431900024414 -1.4814085960388183594 -1.5508575439453125 -1.6989229917526245117 -1.7878246307373046875 -1.8496358394622802734 -1.842638850212097168 -1.8078557252883911133 -1.8219835758209228516 -1.8507659435272216797 -1.9155505895614624023 -2.0091691017150878906 -1.9100698232650756836 -1.7664664983749389648 -1.4893186092376708984 -1.9004007577896118164 -1.8721562623977661133 -1.7394363880157470703 -1.705491185188293457 -1.351117253303527832 -1.5457168817520141602 -1.1982500553131103516 -1.2760496139526367188 -1.4190200567245483398 -1.4258298873901367188 -1.5626764297485351562 -1.5526634454727172852 -1.4905984401702880859 -1.5913302898406982422 -1.7967329025268554688 -1.9822878837585449219 -1.9819593429565429688 -1.9406594038009643555 -1.8540894985198974609 -1.8866034746170043945 -2.1062061786651611328 -1.9317095279693603516 -1.336429595947265625 -1.1423623561859130859 -1.8174337148666381836 -2.0679104328155517578 -2.0268301963806152344 -1.9813371896743774414 -1.7888799905776977539 -1.7057095766067504883 -1.9633080959320068359 -2.0170214176177978516 -2.0601396560668945312 -2.0272345542907714844 -1.8875720500946044922 -1.9066572189331054688 -1.9408725500106811523 -2.1016910076141357422 -2.2730984687805175781 -2.3276219367980957031 -2.2898280620574951172 -2.2833831310272216797 -2.2501833438873291016 -2.2713594436645507812 -2.3432135581970214844 -2.3768305778503417969 -2.3481681346893310547 -2.3984286785125732422 -2.3797810077667236328 -2.3975353240966796875 -2.3853709697723388672 -2.3472335338592529297 -2.3536486625671386719 -2.3564903736114501953 -2.3689846992492675781 -2.3012948036193847656 -2.1995220184326171875 -1.9216362237930297852 -1.8968749046325683594 -2.1354434490203857422 -2.3207273483276367188 -2.2764196395874023438 -2.0006709098815917969 -1.508841395378112793 -1.3490412235260009766 -1.2620074748992919922 -1.2324920892715454102 -1.7809959650039672852 -2.4477586746215820312 -3.0848710536956787109 -3.6417801380157470703 -4.1153235435485839844 -4.2368226051330566406 -4.4279808998107910156 -4.493595123291015625 -4.5443716049194335938 -4.5412325859069824219 nan nan nan nan nan nan nan nan nan nan nan nan nan
0.1650056689977645874 -1.2147543430328369141 -1.3192294836044311523 -1.2839777469635009766 -1.3744117021560668945 -1.368956446647644043 -1.3316435813903808594 -1.3816769123077392578 -1.3541009426116943359 -1.1986131668090820312 -1.2244676351547241211 -1.2197785377502441406 -1.2891830205917358398 -1.2114707231521606445 -0.88009828329086303711 -0.092080250382423400879 0.60320937633514404297 1.2803981304168701172 1.8709590435028076172 1.9145759344100952148 1.8131428956985473633 1.6597188711166381836 1.5804142951965332031 1.7625737190246582031 2.2189540863037109375 2.56301116943359375 2.6172711849212646484 2.718719482421875 2.7853255271911621094 2.6811566352844238281 2.1243054866790771484 1.9085152149200439453 2.0442447662353515625 2.0966219902038574219 2.0626323223114013672 2.1157732009887695312 1.5793982744216918945 0.38000589609146118164 0.30952459573745727539 0.9557616114616394043 1.2267909049987792969 0.5368264317512512207 0.020662838593125343323 -0.22134758532047271729 -0.40513741970062255859 -0.65990501642227172852 -0.82576215267181396484 -1.1835383176803588867 -1.5894528627395629883 -1.6166985034942626953 -1.6108114719390869141 -1.6113618612289428711 -1.715428471565246582 -1.6910680532455444336 -1.6714992523193359375 -1.8095715045928955078 -1.7041107416152954102 -1.5964632034301757812 -1.6238639354705810547 -1.7801656723022460938 -1.9926505088806152344 -1.9989283084869384766 -1.9632319211959838867 -1.7097218036651611328 -2.0316433906555175781 -2.1772596836090087891 -1.8419096469879150391 -1.5559160709381103516 -1.1949124336242675781 -1.236546635627746582 -1.1417479515075683594 -0.98017412424087524414 -1.4397240877151489258 -1.4959721565246582031 -1.4624049663543701172 -1.4790644645690917969 -1.3622606992721557617 -1.4918388128280639648 -1.6761537790298461914 -1.9039608240127563477 -1.5691083669662475586 -1.2875882387161254883 -1.7586389780044555664 -1.9268748760223388672 -2.0513365268707275391 -2.1635353565216064453 -1.7781379222869873047 -1.4600738286972045898 -2.1481759548187255859 -2.3112130165100097656 -2.2749738693237304688 -2.2707874774932861328 -2.1305074691772460938 -2.0032715797424316406 -2.1294448375701904297 -2.1442637443542480469 -2.1903316974639892578 -2.1880276203155517578 -2.03908538818359375 -2.0667452812194824219 -2.0213665962219238281 -2.0094203948974609375 -2.1556453704833984375 -2.2203428745269775391 -2.3377454280853271484 -2.4313976764678955078 -2.409496307373046875 -2.3682613372802734375 -2.3932652473449707031 -2.4515125751495361328 -2.3901560306549072266 -2.4190955162048339844 -2.4775419235229492188 -2.4425573348999023438 -2.4738345146179199219 -2.4042026996612548828 -2.334064483642578125 -2.3691227436065673828 -2.4166905879974365234 -2.39605712890625 -2.3879888057708740234 -2.2918460369110107422 -2.2244901657104492188 -2.3069078922271728516 -2.2975726127624511719 -2.1914501190185546875 -1.7834913730621337891 -1.3079569339752197266 -1.065041661262512207 -0.93616181612014770508 -0.94510883092880249023 -1.4043996334075927734 -2.0578062534332275391 -2.7413823604583740234 -3.3987979888916015625 -3.9859387874603271484 -4.1622948646545410156 -4.374004364013671875 -4.516872406005859375 -4.5718703269958496094 -4.5320181846618652344 nan nan nan nan nan nan nan nan nan nan nan nan nan
