ncols        155
nrows        31
xllcorner    -9051569.8551
yllcorner    3492815.7903
cellsize     1.157226984026
NODATA_value  nan
1.0840888023376464844 1.3578923940658569336 1.5736460685729980469 1.818585515022277832 2.2226879596710205078 2.2930924892425537109 2.1264586448669433594 2.0749251842498779297 2.1967713832855224609 2.2520298957824707031 2.2762014865875244141 2.3118586540222167969 2.3437175750732421875 2.321994781494140625 2.2546291351318359375 2.2467875480651855469 2.2394583225250244141 2.1003239154815673828 2.0936522483825683594 2.3737072944641113281 2.5726616382598876953 2.5071065425872802734 2.2651903629302978516 1.9552248716354370117 1.525014042854309082 0.89566731452941894531 -0.0063080121763050556183 -0.70928442478179931641 -0.78231227397918701172 -0.68086528778076171875 -99 -99 -99 -99 -99 -99 -99 -99 -99 -99 -99 -99 -99 -99 -99 -99 -99 -99 -99 -1.2332783937454223633 -1.2794779539108276367 -1.3553912639617919922 -1.4248987436294555664 -1.4631501436233520508 -1.4792101383209228516 -1.4289516210556030273 -1.3402233123779296875 -1.3627489805221557617 -1.5363079309463500977 -1.6252270936965942383 -1.6207556724548339844 -1.6018304824829101562 -1.5678594112396240234 -1.5812854766845703125 -1.6210957765579223633 -1.6271557807922363281 -1.5840623378753662109 -1.4994519948959350586 -1.4510152339935302734 -1.4115163087844848633 -1.4527721405029296875 -1.5412720441818237305 -1.5943586826324462891 -1.6185134649276733398 -1.5951685905456542969 -1.5966393947601318359 -1.5745368003845214844 -1.5988501310348510742 -1.5465151071548461914 -1.4312905073165893555 -1.4008277654647827148 -1.3451408147811889648 -1.3248142004013061523 -1.3456981182098388672 -1.3459084033966064453 -1.3289673328399658203 -1.0829296112060546875 -0.1678228229284286499 1.1630356311798095703 1.9832311868667602539 2.1958246231079101562 2.1866662502288818359 2.1277780532836914062 2.1753137111663818359 2.2932255268096923828 2.2880737781524658203 2.1965785026550292969 2.1729855537414550781 2.1176576614379882812 1.9707077741622924805 1.8702085018157958984 1.8260161876678466797 1.8521965742111206055 1.9015516042709350586 1.9445779323577880859 1.9919623136520385742 2.0582766532897949219 2.1870644092559814453 2.2646386623382568359 2.2828071117401123047 2.2505898475646972656 2.1647915840148925781 2.1426575183868408203 2.2212994098663330078 2.3101568222045898438 2.3115887641906738281 2.0763318538665771484 0.81190013885498046875 -0.36501944065093994141 -0.90144878625869750977 -1.22321319580078125 -1.5658928155899047852 -1.8184031248092651367 -1.8754916191101074219 -1.8665435314178466797 -1.8112838268280029297 -1.772812962532043457 -1.8903510570526123047 -1.9188292026519775391 -1.8240299224853515625 -1.4991655349731445312 -1.4981974363327026367 -1.6419799327850341797 -1.5050827264785766602 -1.2186882495880126953 -1.216006159782409668 -1.65232086181640625 -1.7546625137329101562 -1.6176840066909790039 -1.2372778654098510742 -0.85591942071914672852 -0.54812723398208618164 -0.44180664420127868652 -1.0297245979309082031 -1.7494748830795288086 -2.0654473304748535156 -2.0472130775451660156 -1.9448798894882202148 -1.9354593753814697266 -1.857323765754699707 -1.8289259672164916992 -1.8025712966918945312 -1.6592273712158203125 -1.4070675373077392578 -1.0774204730987548828
-0.1929016411304473877 0.091428145766258239746 0.43120941519737243652 0.86018067598342895508 1.5723470449447631836 1.9407457113265991211 1.8841600418090820312 1.930798649787902832 2.1303660869598388672 2.185741424560546875 2.2078564167022705078 2.2852013111114501953 2.2738192081451416016 2.0503544807434082031 1.8030180931091308594 1.7504953145980834961 1.9517629146575927734 2.0287756919860839844 2.0879433155059814453 2.2749109268188476562 2.3502004146575927734 2.1717231273651123047 1.7985345125198364258 1.4960682392120361328 1.2874253988265991211 0.76976907253265380859 -0.027364259585738182068 -0.30767676234245300293 -0.27276015281677246094 -99 -99 -99 -99 -99 -99 -99 -99 -99 -99 -99 -99 -99 -99 -99 -99 -99 -99 -99 -99 -99 -99 -99 -1.3282465934753417969 -1.2153319120407104492 -1.1680052280426025391 -1.1938303709030151367 -1.2104831933975219727 -1.2884848117828369141 -1.477824091911315918 -1.6058981418609619141 -1.592227935791015625 -1.5749061107635498047 -1.588830113410949707 -1.6130951642990112305 -1.5688643455505371094 -1.522716522216796875 -1.529438018798828125 -1.4825463294982910156 -1.4652042388916015625 -1.3740590810775756836 -1.3430247306823730469 -1.4150893688201904297 -1.4594216346740722656 -1.5259671211242675781 -1.5881161689758300781 -1.6911256313323974609 -1.7692654132843017578 -1.777117609977722168 -1.6999080181121826172 -1.6385216712951660156 -1.6241463422775268555 -1.4978203773498535156 -1.3951520919799804688 -1.3760186433792114258 -1.3482948541641235352 -1.3623816967010498047 -1.2733675241470336914 -0.82986569404602050781 0.056542716920375823975 0.88066780567169189453 1.2369796037673950195 1.3122037649154663086 1.3631010055541992188 1.7438645362854003906 2.1478979587554931641 2.2871770858764648438 2.3187003135681152344 2.3028247356414794922 2.2019708156585693359 2.0120203495025634766 1.8862714767456054688 1.8069909811019897461 1.7853845357894897461 1.8095326423645019531 1.848196864128112793 1.8759995698928833008 1.9164220094680786133 2.0068652629852294922 2.1226243972778320312 2.1591849327087402344 2.1082015037536621094 2.0967986583709716797 2.1718947887420654297 2.2477896213531494141 2.3048191070556640625 2.1555581092834472656 1.6079676151275634766 0.60674130916595458984 -0.45096629858016967773 -0.97073662281036376953 -1.3310172557830810547 -1.6648757457733154297 -1.8218721151351928711 -1.8161119222640991211 -1.8212277889251708984 -1.8018876314163208008 -1.7786350250244140625 -1.8552629947662353516 -1.8093620538711547852 -1.859004974365234375 -1.7444188594818115234 -1.6968988180160522461 -1.7163016796112060547 -1.5846405029296875 -1.3831955194473266602 -1.5242241621017456055 -1.8167631626129150391 -1.7973963022232055664 -1.5576722621917724609 -1.1474689245223999023 -0.75886237621307373047 -0.55914658308029174805 -0.54190313816070556641 -0.99268776178359985352 -1.6319719552993774414 -1.7972239255905151367 -1.7117482423782348633 -1.6899271011352539062 -1.6969733238220214844 -1.6044253110885620117 -1.6135121583938598633 -1.5563523769378662109 -1.4086676836013793945 -1.2264466285705566406 -1.0376089811325073242
-0.82814007997512817383 -0.789508819580078125 -0.65343576669692993164 -0.13244611024856567383 0.76376962661743164062 1.4266436100006103516 1.5019928216934204102 1.7431361675262451172 2.0566272735595703125 2.157276153564453125 2.1739764213562011719 2.2296440601348876953 2.1767709255218505859 1.8441194295883178711 1.5330567359924316406 1.4795687198638916016 1.7050248384475708008 1.8677719831466674805 1.9094222784042358398 1.9984115362167358398 1.9131348133087158203 1.6531182527542114258 1.4207249879837036133 1.3981364965438842773 1.3499077558517456055 0.87467408180236816406 0.32591009140014648438 0.21935150027275085449 -99 -99 -99 -99 -99 -99 -99 -99 -99 -99 -99 -99 -99 -99 -99 -99 -99 -99 -99 -99 -99 -99 -99 -99 -99 -0.87694489955902099609 -0.82232141494750976562 -0.9437726140022277832 -1.1710373163223266602 -1.3821257352828979492 -1.5105454921722412109 -1.6039253473281860352 -1.6250187158584594727 -1.5715757608413696289 -1.530942082405090332 -1.3738886117935180664 -0.99901098012924194336 -1.0186185836791992188 -1.370934605598449707 -1.4633936882019042969 -1.4420970678329467773 -1.3489787578582763672 -1.3091500997543334961 -1.3610848188400268555 -1.3504177331924438477 -1.3853921890258789062 -1.4884009361267089844 -1.6675024032592773438 -1.8211227655410766602 -1.8513305187225341797 -1.7927844524383544922 -1.7470461130142211914 -1.7527631521224975586 -1.6642410755157470703 -1.5543885231018066406 -1.5345755815505981445 -1.486046910285949707 -1.4824196100234985352 -1.4183694124221801758 -1.1826859712600708008 -0.80710989236831665039 -0.30413511395454406738 0.097795814275741577148 0.33688938617706298828 0.74392414093017578125 1.5600374937057495117 2.1857216358184814453 2.4014666080474853516 2.4188396930694580078 2.3459000587463378906 2.2072670459747314453 2.0078959465026855469 1.8739647865295410156 1.7824432849884033203 1.7435075044631958008 1.7614221572875976562 1.7922523021697998047 1.8204562664031982422 1.8415311574935913086 1.8763016462326049805 1.9481049776077270508 2.0040099620819091797 1.993447422981262207 2.0705072879791259766 2.2415170669555664062 2.331607818603515625 2.2210967540740966797 1.7806099653244018555 1.0037726163864135742 0.11364359408617019653 -0.56976801156997680664 -0.99080270528793334961 -1.3973096609115600586 -1.6765516996383666992 -1.819407343864440918 -1.7863985300064086914 -1.7358295917510986328 -1.6768459081649780273 -1.7162067890167236328 -1.8073053359985351562 -1.8508712053298950195 -1.9204255342483520508 -1.9258146286010742188 -1.9158334732055664062 -1.8971842527389526367 -1.794691920280456543 -1.6774773597717285156 -1.7766208648681640625 -1.7735272645950317383 -1.7233049869537353516 -1.5767008066177368164 -1.3558121919631958008 -1.1176273822784423828 -0.92396813631057739258 -0.66339576244354248047 -0.95081818103790283203 -1.480045318603515625 -1.644060969352722168 -1.4674308300018310547 -1.2748260498046875 -1.1070009469985961914 -1.0721654891967773438 -1.1709936857223510742 -1.1763945817947387695 -1.0674887895584106445 -0.88192188739776611328 -0.70079791545867919922
-0.98845106363296508789 -1.0116864442825317383 -1.0111292600631713867 -0.69296318292617797852 0.29029002785682678223 0.88699007034301757812 1.1433422565460205078 1.6196578741073608398 2.0449194908142089844 2.1753354072570800781 2.1647696495056152344 2.1478245258331298828 2.0947346687316894531 1.769260406494140625 1.463076472282409668 1.3843728303909301758 1.4996448755264282227 1.6763744354248046875 1.6767750978469848633 1.6784403324127197266 1.5238136053085327148 1.3212413787841796875 1.312379002571105957 1.4847921133041381836 1.5318500995635986328 1.0947738885879516602 0.71383696794509887695 0.73232674598693847656 -99 -99 -99 -99 -99 -99 -99 -99 -99 -99 -99 -99 -99 -99 -99 -99 -99 -99 -99 -99 -99 -99 -99 -99 -99 -0.53890210390090942383 -0.6624520421028137207 -0.91100746393203735352 -1.2399740219116210938 -1.5116494894027709961 -1.6091637611389160156 -1.6012847423553466797 -1.4723142385482788086 -1.1802779436111450195 -0.85601133108139038086 -0.46406304836273193359 0.13353721797466278076 0.17464345693588256836 -0.66807830333709716797 -1.2873201370239257812 -1.3964616060256958008 -1.3768953084945678711 -1.3412326574325561523 -1.3341059684753417969 -1.2754194736480712891 -1.2305774688720703125 -1.2780144214630126953 -1.4523019790649414062 -1.6452561616897583008 -1.7469819784164428711 -1.8137084245681762695 -1.8702696561813354492 -1.9162272214889526367 -1.8394739627838134766 -1.7264640331268310547 -1.6879280805587768555 -1.6457675695419311523 -1.613730311393737793 -1.516268610954284668 -1.3545317649841308594 -1.234165191650390625 -0.94642102718353271484 -0.46305292844772338867 -0.018878048285841941833 0.71485221385955810547 1.6799440383911132812 2.3009727001190185547 2.5150499343872070312 2.4880237579345703125 2.3866240978240966797 2.2657196521759033203 2.0969347953796386719 1.962926030158996582 1.8505959510803222656 1.7892354726791381836 1.783755183219909668 1.8007755279541015625 1.8300188779830932617 1.8450460433959960938 1.8685785531997680664 1.9309006929397583008 2.0094387531280517578 2.0189676284790039062 2.0576906204223632812 2.1878628730773925781 2.2870016098022460938 2.1045165061950683594 1.4163820743560791016 0.50756806135177612305 -0.25348827242851257324 -0.70310485363006591797 -1.026858210563659668 -1.4285351037979125977 -1.6507230997085571289 -1.7846226692199707031 -1.7833997011184692383 -1.6612372398376464844 -1.581601262092590332 -1.6834082603454589844 -1.7346152067184448242 -1.743586421012878418 -1.8420083522796630859 -1.953606724739074707 -1.9015324115753173828 -1.8756763935089111328 -1.8796230554580688477 -1.8265669345855712891 -1.7679455280303955078 -1.5836682319641113281 -1.5531924962997436523 -1.6031024456024169922 -1.6696418523788452148 -1.6165893077850341797 -1.3596799373626708984 -0.89020168781280517578 -1.0082839727401733398 -1.4831298589706420898 -1.586690068244934082 -1.3445202112197875977 -1.0239657163619995117 -0.6836426854133605957 -0.65174692869186401367 -0.74972051382064819336 -0.78296369314193725586 -0.74461948871612548828 -0.54790425300598144531 -0.37357360124588012695
-0.92010915279388427734 -0.95508605241775512695 -0.99708360433578491211 -0.77711433172225952148 0.049744240939617156982 0.46752074360847473145 0.96582430601119995117 1.5792258977890014648 2.0681042671203613281 2.2064318656921386719 2.1669290065765380859 2.0770449638366699219 2.0274801254272460938 1.7396280765533447266 1.4371120929718017578 1.3366146087646484375 1.3687742948532104492 1.5038219690322875977 1.4571083784103393555 1.395894169807434082 1.2996124029159545898 1.2445569038391113281 1.437249302864074707 1.7793493270874023438 1.8542640209197998047 1.514403223991394043 1.2317225933074951172 -99 -99 -99 -99 -99 -99 -99 -99 -99 -99 -99 -99 -99 -99 -99 -99 -99 -99 -99 -99 -99 -99 -99 -99 -99 -99 -99 -0.30929151177406311035 -0.75718683004379272461 -1.20066070556640625 -1.3863244056701660156 -1.2341623306274414062 -0.86496591567993164062 -0.48298460245132446289 -0.099927090108394622803 0.26385608315467834473 0.63715422153472900391 0.98607468605041503906 0.86140829324722290039 0.028110755607485771179 -0.73408567905426025391 -1.125934600830078125 -1.3176159858703613281 -1.323868870735168457 -1.2916879653930664062 -1.2087837457656860352 -1.1586185693740844727 -1.1491638422012329102 -1.2351380586624145508 -1.4285287857055664062 -1.6038950681686401367 -1.7689418792724609375 -1.8760492801666259766 -1.8824560642242431641 -1.8119096755981445312 -1.7658445835113525391 -1.7539429664611816406 -1.7006531953811645508 -1.682633519172668457 -1.6480063199996948242 -1.5489697456359863281 -1.4738711118698120117 -1.3100072145462036133 -0.8485927581787109375 -0.11234103888273239136 0.84646970033645629883 1.8045547008514404297 2.3569052219390869141 2.4974281787872314453 2.4746866226196289062 2.3994131088256835938 2.3124196529388427734 2.2069835662841796875 2.0785913467407226562 1.9318206310272216797 1.8516104221343994141 1.8342026472091674805 1.8262536525726318359 1.8252719640731811523 1.8347710371017456055 1.8616007566452026367 1.9028719663619995117 1.9470368623733520508 2.0122845172882080078 2.0804893970489501953 2.1818263530731201172 2.2719035148620605469 2.1786262989044189453 1.4702125787734985352 0.29357516765594482422 -0.46262189745903015137 -0.88272017240524291992 -1.2067643404006958008 -1.5377244949340820312 -1.7412457466125488281 -1.8048892021179199219 -1.7726305723190307617 -1.714078068733215332 -1.6989693641662597656 -1.7186081409454345703 -1.676029205322265625 -1.4642796516418457031 -1.5312261581420898438 -1.8068487644195556641 -1.8525106906890869141 -1.8988832235336303711 -1.9442328214645385742 -1.9304029941558837891 -1.8418875932693481445 -1.6379348039627075195 -1.6194041967391967773 -1.7260209321975708008 -1.831227421760559082 -1.7278635501861572266 -1.4329748153686523438 -0.95104891061782836914 -1.016316533088684082 -1.5254683494567871094 -1.6687471866607666016 -1.654376983642578125 -1.494505763053894043 -1.0619950294494628906 -0.66573798656463623047 -0.60131412744522094727 -0.54471498727798461914 -0.46672740578651428223 -0.43017086386680603027 -0.38986045122146606445
-0.81019943952560424805 -0.88655352592468261719 -0.94169032573699951172 -0.79312539100646972656 -0.25884449481964111328 0.27811077237129211426 0.90409880876541137695 1.5831357240676879883 2.0961880683898925781 2.2399187088012695312 2.1957371234893798828 2.0694777965545654297 1.9620014429092407227 1.7184525728225708008 1.4171987771987915039 1.3021695613861083984 1.2996263504028320312 1.3514631986618041992 1.2932155132293701172 1.2525415420532226562 1.2216762304306030273 1.3454357385635375977 1.7877519130706787109 2.1343069076538085938 2.1721887588500976562 1.9462507963180541992 -99 -99 -99 -99 -99 -99 -99 -99 -99 -99 -99 -99 -99 -99 -99 -99 -99 -99 -99 -99 -99 -99 -99 -99 -99 -99 -99 -99 0.41197326779365539551 -0.0055564111098647117615 -0.29447799921035766602 -0.11369607597589492798 0.19547526538372039795 0.56508368253707885742 0.92609524726867675781 1.1889537572860717773 1.2732104063034057617 1.3693032264709472656 1.4889554977416992188 1.3246452808380126953 0.70544451475143432617 0.048687167465686798096 -0.54373401403427124023 -1.0505787134170532227 -1.1523759365081787109 -1.1202082633972167969 -1.1185613870620727539 -1.1136789321899414062 -1.0818818807601928711 -1.1083523035049438477 -1.1891256570816040039 -1.2299706935882568359 -1.3962254524230957031 -1.6390489339828491211 -1.7843533754348754883 -1.8255296945571899414 -1.8422070741653442383 -1.8590085506439208984 -1.79010772705078125 -1.6847832202911376953 -1.6022102832794189453 -1.5263515710830688477 -1.4231482744216918945 -1.2439887523651123047 -0.89923435449600219727 -0.25592124462127685547 0.69993549585342407227 1.7097275257110595703 2.2943410873413085938 2.4350030422210693359 2.4339339733123779297 2.3762800693511962891 2.3046865463256835938 2.2391574382781982422 2.1499786376953125 2.0184957981109619141 1.9459526538848876953 1.8897423744201660156 1.8590439558029174805 1.8670517206192016602 1.8461182117462158203 1.8493969440460205078 1.8752369880676269531 1.9005876779556274414 2.0022809505462646484 2.1245818138122558594 2.2399907112121582031 2.2753705978393554688 2.1363761425018310547 1.3101499080657958984 0.066238969564437866211 -0.64773100614547729492 -1.0053348541259765625 -1.3658614158630371094 -1.6571483612060546875 -1.8221974372863769531 -1.9269618988037109375 -1.9007940292358398438 -1.7867804765701293945 -1.6480011940002441406 -1.5370386838912963867 -1.5077975988388061523 -1.313700556755065918 -1.3372280597686767578 -1.7394199371337890625 -1.917283177375793457 -1.9507974386215209961 -1.9137017726898193359 -1.917840123176574707 -1.9375709295272827148 -1.8253577947616577148 -1.8047945499420166016 -1.7904307842254638672 -1.8041960000991821289 -1.6294317245483398438 -1.2713165283203125 -0.85655814409255981445 -1.0871621370315551758 -1.6606550216674804688 -1.8993806838989257812 -2.0321984291076660156 -1.9980522394180297852 -1.6290283203125 -0.91302955150604248047 -0.63037800788879394531 -0.56884938478469848633 -0.56762576103210449219 -0.55491876602172851562 -0.4847698211669921875
-0.72390294075012207031 -0.78369861841201782227 -0.80352836847305297852 -0.7086308598518371582 -0.40943023562431335449 0.20568880438804626465 0.89064657688140869141 1.5972808599472045898 2.1250069141387939453 2.2754731178283691406 2.2353050708770751953 2.0873818397521972656 1.8965340852737426758 1.7007882595062255859 1.4055354595184326172 1.2656992673873901367 1.2287641763687133789 1.2355202436447143555 1.2299075126647949219 1.2432564496994018555 1.3785722255706787109 1.664862513542175293 2.1335861682891845703 2.3754074573516845703 2.3656225204467773438 -99 -99 -99 -99 -99 -99 -99 -99 -99 -99 -99 -99 -99 -99 -99 -99 -99 -99 -99 -99 -99 -99 -99 -99 -99 -99 -99 -99 -99 1.1078933477401733398 0.97743898630142211914 1.0032190084457397461 1.4392968416213989258 1.756119847297668457 1.8818680047988891602 1.9674552679061889648 1.9749737977981567383 1.8874927759170532227 1.8896681070327758789 1.9604841470718383789 1.8541576862335205078 1.4782400131225585938 0.94806694984436035156 0.29374551773071289062 -0.24201023578643798828 -0.37146323919296264648 -0.41378831863403320312 -0.54425829648971557617 -0.71549105644226074219 -0.90739774703979492188 -1.0441331863403320312 -1.1283550262451171875 -1.0768237113952636719 -1.2116533517837524414 -1.511922001838684082 -1.677821040153503418 -1.7651917934417724609 -1.7945182323455810547 -1.7736070156097412109 -1.692134857177734375 -1.5859812498092651367 -1.5305517911911010742 -1.5021030902862548828 -1.4494097232818603516 -1.2975021600723266602 -1.0057491064071655273 -0.51371294260025024414 0.32608121633529663086 1.3787837028503417969 2.0656633377075195312 2.2899315357208251953 2.3773870468139648438 2.3871767520904541016 2.3657395839691162109 2.3126587867736816406 2.22129058837890625 2.1082286834716796875 2.0213837623596191406 1.9301578998565673828 1.8873233795166015625 1.8898340463638305664 1.8885473012924194336 1.8934868574142456055 1.9069756269454956055 1.9219189882278442383 2.0192623138427734375 2.152057647705078125 2.2479014396667480469 2.0915710926055908203 1.5921339988708496094 0.77183514833450317383 -0.2538439333438873291 -0.81498944759368896484 -1.1291909217834472656 -1.4872884750366210938 -1.7269576787948608398 -1.8700956106185913086 -1.940887451171875 -1.9338110685348510742 -1.7929614782333374023 -1.7849265336990356445 -1.5819317102432250977 -1.3477141857147216797 -1.1862328052520751953 -1.2383126020431518555 -1.6591258049011230469 -1.8809629678726196289 -1.9654296636581420898 -1.9451841115951538086 -1.9064757823944091797 -1.9471439123153686523 -1.8326311111450195312 -1.6817679405212402344 -1.6806774139404296875 -1.7669234275817871094 -1.6254930496215820312 -1.28018951416015625 -1.000372767448425293 -1.2948479652404785156 -1.7947289943695068359 -1.7445979118347167969 -1.7380505800247192383 -2.1283524036407470703 -2.0304379463195800781 -1.445402979850769043 -0.96532362699508666992 -0.87432014942169189453 -0.96059316396713256836 -0.92064672708511352539 -0.74032807350158691406
-0.69408851861953735352 -0.78530991077423095703 -0.80327391624450683594 -0.75657731294631958008 -0.48449116945266723633 0.16866029798984527588 0.89710754156112670898 1.6116602420806884766 2.1540493965148925781 2.3119790554046630859 2.2802691459655761719 2.1411550045013427734 1.8927037715911865234 1.6839916706085205078 1.3966897726058959961 1.2316522598266601562 1.2166472673416137695 1.2925429344177246094 1.3382177352905273438 1.5105358362197875977 1.8510165214538574219 2.1676514148712158203 2.3991780281066894531 2.5103468894958496094 2.5575699806213378906 -99 -99 -99 -99 -99 -99 -99 -99 -99 -99 -99 -99 -99 -99 -99 -99 -99 -99 -99 -99 -99 -99 -99 -99 -99 -99 -99 -99 -99 -99 1.7958109378814697266 1.8381376266479492188 2.0403583049774169922 2.2143251895904541016 2.3002972602844238281 2.3199830055236816406 2.2772781848907470703 2.2183954715728759766 2.22861480712890625 2.2769310474395751953 2.2259461879730224609 2.0322053432464599609 1.7296586036682128906 1.2462235689163208008 0.79390257596969604492 0.64051342010498046875 0.52370053529739379883 0.36311194300651550293 0.17057022452354431152 -0.083003580570220947266 -0.47253158688545227051 -0.94565606117248535156 -1.069498896598815918 -1.1991152763366699219 -1.4173437356948852539 -1.5116225481033325195 -1.6402558088302612305 -1.7275052070617675781 -1.7479442358016967773 -1.7032709121704101562 -1.592105865478515625 -1.5592328310012817383 -1.5176532268524169922 -1.3312238454818725586 -1.0877531766891479492 -0.86809724569320678711 -0.58346658945083618164 0.0050227409228682518005 1.0303472280502319336 1.8506970405578613281 2.1469514369964599609 2.2888579368591308594 2.3782229423522949219 2.3940641880035400391 2.3547918796539306641 2.28617095947265625 2.1803104877471923828 2.0455119609832763672 1.9566960334777832031 1.9449278116226196289 1.9413201808929443359 1.9355833530426025391 1.9381887912750244141 1.9551090002059936523 1.9970573186874389648 2.0747797489166259766 2.1610372066497802734 2.1450009346008300781 1.7708808183670043945 1.0572582483291625977 0.25060677528381347656 -0.43721842765808105469 -0.85202002525329589844 -1.1596368551254272461 -1.4965932369232177734 -1.7125711441040039062 -1.8480792045593261719 -1.9185292720794677734 -1.9219188690185546875 -1.9157705307006835938 -1.9799010753631591797 -1.7410448789596557617 -1.4649686813354492188 -1.2473406791687011719 -1.2145544290542602539 -1.5631260871887207031 -1.8517618179321289062 -1.9750931262969970703 -1.9803044795989990234 -1.8659462928771972656 -1.8235592842102050781 -1.7096285820007324219 -1.5221060514450073242 -1.5972121953964233398 -1.6930289268493652344 -1.676369786262512207 -1.5033421516418457031 -1.3589280843734741211 -1.6331475973129272461 -1.7679413557052612305 -1.5230835676193237305 -1.6776567697525024414 -2.0231230258941650391 -2.2299313545227050781 -2.0114452838897705078 -1.5283119678497314453 -1.1951891183853149414 -1.1883976459503173828 -1.2395651340484619141 -1.0766965150833129883
-0.69623726606369018555 -0.70700037479400634766 -0.70074069499969482422 -0.73340147733688354492 -0.5364462733268737793 0.16687418520450592041 0.90740674734115600586 1.6259913444519042969 2.1831345558166503906 2.3491816520690917969 2.3261113166809082031 2.2039163112640380859 1.9145842790603637695 1.6652622222900390625 1.449509739875793457 1.4149832725524902344 1.5524828433990478516 1.6553314924240112305 1.7414262294769287109 1.9813349246978759766 2.2623505592346191406 2.4106130599975585938 2.4765677452087402344 2.4817359447479248047 2.4457240104675292969 -99 -99 -99 -99 -99 -99 -99 -99 -99 -99 -99 -99 -99 -99 -99 -99 -99 -99 -99 -99 -99 -99 -99 -99 -99 -99 -99 -99 -99 -99 -99 2.0543756484985351562 2.1740665435791015625 2.3141055107116699219 2.4304475784301757812 2.4594311714172363281 2.41460418701171875 2.3740797042846679688 2.3738014698028564453 2.3786320686340332031 2.3265328407287597656 2.2381260395050048828 2.12451171875 1.9612714052200317383 1.8229585886001586914 1.6958659887313842773 1.5002284049987792969 1.3618088960647583008 1.2822735309600830078 1.0024547576904296875 0.38043421506881713867 -0.40235021710395812988 -0.71422624588012695312 -0.95094418525695800781 -1.2477827072143554688 -1.3848481178283691406 -1.6500324010848999023 -1.8236091136932373047 -1.8023626804351806641 -1.6743451356887817383 -1.5381033420562744141 -1.4315805435180664062 -1.0744322538375854492 -0.68569266796112060547 -0.59834283590316772461 -0.62786829471588134766 -0.47282588481903076172 -0.12383444607257843018 0.79061448574066162109 1.6694643497467041016 1.9947502613067626953 2.1585869789123535156 2.3438954353332519531 2.4142792224884033203 2.3903856277465820312 2.3459873199462890625 2.2623975276947021484 2.1466119289398193359 2.0694968700408935547 1.991305232048034668 1.9457144737243652344 1.9288516044616699219 1.9434400796890258789 2.0065135955810546875 2.1131207942962646484 2.2083120346069335938 2.23492431640625 2.1311976909637451172 1.6917896270751953125 0.94902765750885009766 0.12112443894147872925 -0.54259711503982543945 -0.99040925502777099609 -1.2441083192825317383 -1.5306191444396972656 -1.759087681770324707 -1.84391021728515625 -1.9058316946029663086 -1.9515645503997802734 -1.945690155029296875 -1.9722819328308105469 -1.9028648138046264648 -1.7518808841705322266 -1.5828558206558227539 -1.4694429636001586914 -1.6443936824798583984 -1.8646789789199829102 -1.9123723506927490234 -1.9097540378570556641 -1.8586435317993164062 -1.7970217466354370117 -1.7961143255233764648 -1.7341182231903076172 -1.7806390523910522461 -1.7396476268768310547 -1.758849024772644043 -1.7636102437973022461 -1.77172088623046875 -1.8466132879257202148 -1.4719691276550292969 -1.611527562141418457 -1.997998356819152832 -2.2525954246520996094 -2.3559582233428955078 -2.2696182727813720703 -1.8745049238204956055 -1.3251678943634033203 -1.1858741044998168945 -1.2925771474838256836 -1.143246769905090332
-0.66215765476226806641 -0.67085409164428710938 -0.62203586101531982422 -0.59430879354476928711 -0.34916487336158752441 0.23252403736114501953 0.91778707504272460938 1.6402761936187744141 2.2122597694396972656 2.386440277099609375 2.3662011623382568359 2.2617650032043457031 2.0169653892517089844 1.8671169281005859375 1.8111383914947509766 1.8677964210510253906 2.0534844398498535156 2.1065697669982910156 2.1644015312194824219 2.3972890377044677734 2.5365788936614990234 2.521762847900390625 2.3971228599548339844 2.2336156368255615234 2.1347301006317138672 -99 -99 -99 -99 -99 -99 -99 -99 -99 -99 -99 -99 -99 -99 -99 -99 -99 -99 -99 -99 -99 -99 -99 -99 -99 -99 -99 -99 -99 -99 -99 -99 2.2311561107635498047 2.3997104167938232422 2.5542712211608886719 2.5895907878875732422 2.514659881591796875 2.4318890571594238281 2.3817756175994873047 2.3893721103668212891 2.3816409111022949219 2.3312604427337646484 2.2919559478759765625 2.2545855045318603516 2.2261867523193359375 2.1701273918151855469 2.0725169181823730469 1.9883425235748291016 1.9662787914276123047 1.8247979879379272461 1.3691401481628417969 0.72219896316528320312 0.24363149702548980713 -0.42147880792617797852 -1.0223964452743530273 -1.2367269992828369141 -1.5062708854675292969 -1.7307249307632446289 -1.6437700986862182617 -1.3930572271347045898 -1.3372774124145507812 -1.2805523872375488281 -0.82883548736572265625 -0.39770081639289855957 -0.37565237283706665039 -0.47093823552131652832 -0.42526611685752868652 -0.22427031397819519043 0.56749105453491210938 1.4647879600524902344 1.8694564104080200195 2.1139192581176757812 2.3655216693878173828 2.4879441261291503906 2.4887235164642333984 2.4371583461761474609 2.3571155071258544922 2.2676510810852050781 2.1672921180725097656 2.0305383205413818359 1.9703024625778198242 1.9681508541107177734 1.9535136222839355469 1.9788347482681274414 2.0701444149017333984 2.1920974254608154297 2.2533919811248779297 2.1381704807281494141 1.7209473848342895508 0.98384320735931396484 0.14458814263343811035 -0.60837036371231079102 -1.1221207380294799805 -1.3792490959167480469 -1.5566070079803466797 -1.7056288719177246094 -1.8095438480377197266 -1.8859865665435791016 -1.9264013767242431641 -1.8497273921966552734 -1.931517481803894043 -1.9105335474014282227 -1.8005410432815551758 -1.6207960844039916992 -1.4557938575744628906 -1.4957777261734008789 -1.4811277389526367188 -1.5479830503463745117 -1.8122310638427734375 -1.8401856422424316406 -1.6850255727767944336 -1.8170518875122070312 -1.9721601009368896484 -1.9745199680328369141 -1.8512140512466430664 -1.8409986495971679688 -1.8479719161987304688 -1.9641841650009155273 -1.9597961902618408203 -1.6629401445388793945 -1.904164433479309082 -2.1080069541931152344 -2.3012602329254150391 -2.2135996818542480469 -2.2089498043060302734 -2.0052802562713623047 -1.5953842401504516602 -1.3623894453048706055 -1.2541882991790771484 -1.0899910926818847656
-0.81034040451049804688 -0.79594594240188598633 -0.70228141546249389648 -0.47472420334815979004 -0.034118734300136566162 0.52747517824172973633 1.0571733713150024414 1.6545113325119018555 2.2414255142211914062 2.4232935905456542969 2.3982992172241210938 2.3297078609466552734 2.2389967441558837891 2.1597225666046142578 2.0780315399169921875 2.0533895492553710938 2.1799302101135253906 2.3141713142395019531 2.3899514675140380859 2.5957250595092773438 2.5966179370880126953 2.3924665451049804688 2.1202728748321533203 1.8932507038116455078 1.7834270000457763672 -99 -99 -99 -99 -99 -99 -99 -99 -99 -99 -99 -99 -99 -99 -99 -99 -99 -99 -99 -99 -99 -99 -99 -99 -99 -99 -99 -99 -99 -99 -99 -99 -99 -99 2.4576115608215332031 2.4723982810974121094 2.4363749027252197266 2.3901109695434570312 2.3377220630645751953 2.326770782470703125 2.3538658618927001953 2.366359710693359375 2.3534579277038574219 2.3310067653656005859 2.3467395305633544922 2.3474142551422119141 2.2988140583038330078 2.2570028305053710938 2.2528674602508544922 2.2026457786560058594 1.992747187614440918 1.6764476299285888672 1.231648564338684082 0.27142259478569030762 -0.77594715356826782227 -1.1925023794174194336 -1.3939262628555297852 -1.6427114009857177734 -1.6063697338104248047 -1.3696391582489013672 -1.3422026634216308594 -1.2565690279006958008 -0.76969408988952636719 -0.33398222923278808594 -0.28823801875114440918 -0.33055847883224487305 -0.3817780911922454834 -0.29262197017669677734 0.31569454073905944824 1.2363775968551635742 1.8366209268569946289 2.1776902675628662109 2.4179453849792480469 2.4712383747100830078 2.4237422943115234375 2.3909726142883300781 2.3905265331268310547 2.3556118011474609375 2.2578797340393066406 2.1515424251556396484 2.1453535556793212891 2.1049468517303466797 2.0001628398895263672 1.9863926172256469727 2.1369442939758300781 2.2749118804931640625 2.2881548404693603516 2.0896360874176025391 1.5219566822052001953 0.70288413763046264648 -0.15660259127616882324 -0.81104886531829833984 -1.1997513771057128906 -1.4355034828186035156 -1.6078716516494750977 -1.7422935962677001953 -1.856360316276550293 -1.9454916715621948242 -1.8953940868377685547 -1.8757063150405883789 -2.0041978359222412109 -1.963132023811340332 -1.8157639503479003906 -1.7255408763885498047 -1.6341741085052490234 -1.6039468050003051758 -1.5447603464126586914 -1.6683967113494873047 -1.8537120819091796875 -1.8493748903274536133 -1.7404603958129882812 -1.8808646202087402344 -2.0379292964935302734 -2.0703694820404052734 -1.8706625699996948242 -1.746026158332824707 -1.7344261407852172852 -1.8838827610015869141 -1.9251132011413574219 -1.8168150186538696289 -1.9311019182205200195 -1.9279814958572387695 -1.9530518054962158203 -1.8255643844604492188 -1.8565500974655151367 -1.9985681772232055664 -1.8645024299621582031 -1.6082029342651367188 -1.346411585807800293 -1.2082471847534179688
-0.96793019771575927734 -0.90481245517730712891 -0.62154567241668701172 -0.22621260583400726318 0.27742439508438110352 0.85829073190689086914 1.4107787609100341797 1.9069936275482177734 2.3117761611938476562 2.4030714035034179688 2.368682861328125 2.4188525676727294922 2.3791124820709228516 2.2927920818328857422 2.16239166259765625 2.09807586669921875 2.1759243011474609375 2.3460857868194580078 2.4793827533721923828 2.5376961231231689453 2.3610599040985107422 2.0747230052947998047 1.7706931829452514648 1.5303537845611572266 1.4282146692276000977 -99 -99 -99 -99 -99 -99 -99 -99 -99 -99 -99 -99 -99 -99 -99 -99 -99 -99 -99 -99 -99 -99 -99 -99 -99 -99 -99 -99 -99 -99 -99 -99 -99 -99 -99 2.2837247848510742188 2.2698066234588623047 2.2331705093383789062 2.1398708820343017578 2.0510213375091552734 2.0544722080230712891 2.1291141510009765625 2.2135846614837646484 2.2881066799163818359 2.3826537132263183594 2.4357607364654541016 2.4401423931121826172 2.4432229995727539062 2.4292600154876708984 2.3907961845397949219 2.3105762004852294922 2.1955802440643310547 1.9003324508666992188 0.9030609130859375 -0.46472004055976867676 -1.186785578727722168 -1.3979802131652832031 -1.5121016502380371094 -1.5203322172164916992 -1.3427385091781616211 -1.1741615533828735352 -1.1378033161163330078 -0.88833206892013549805 -0.45422315597534179688 -0.26672357320785522461 -0.28094089031219482422 -0.36402037739753723145 -0.36537343263626098633 0.2184724956750869751 1.2769623994827270508 1.9936428070068359375 2.3051588535308837891 2.4847307205200195312 2.5301218032836914062 2.4895796775817871094 2.4257743358612060547 2.3488743305206298828 2.3306889533996582031 2.2826902866363525391 2.2009663581848144531 2.1778445243835449219 2.1247715950012207031 2.0737249851226806641 2.1000876426696777344 2.2025029659271240234 2.2718420028686523438 2.2081346511840820312 1.7468690872192382812 0.96061444282531738281 0.073600150644779205322 -0.6059474945068359375 -1.0237033367156982422 -1.2700643539428710938 -1.4560400247573852539 -1.6037912368774414062 -1.7303029298782348633 -1.8229218721389770508 -1.9327918291091918945 -1.9560337066650390625 -1.9083375930786132812 -1.9631879329681396484 -2.0008411407470703125 -1.9116702079772949219 -1.8458887338638305664 -1.773131251335144043 -1.8959106206893920898 -1.9573436975479125977 -2.0146832466125488281 -2.0142123699188232422 -1.9417041540145874023 -1.7496422529220581055 -1.6782233715057373047 -1.745596766471862793 -1.938765406608581543 -1.8582974672317504883 -1.7432562112808227539 -1.6647746562957763672 -1.6580703258514404297 -1.5932824611663818359 -1.5363941192626953125 -1.559309840202331543 -1.4415223598480224609 -1.4147200584411621094 -1.3236315250396728516 -1.3559081554412841797 -1.8114563226699829102 -2.0256946086883544922 -1.8312661647796630859 -1.5291080474853515625 -1.4268813133239746094
-0.7622013092041015625 -0.72852152585983276367 -0.31702914834022521973 0.13211493194103240967 0.58344191312789916992 1.1306395530700683594 1.724285125732421875 2.2067492008209228516 2.4247236251831054688 2.3903925418853759766 2.4129548072814941406 2.4915964603424072266 2.3923125267028808594 2.3255250453948974609 2.2103245258331298828 2.1383633613586425781 2.2033874988555908203 2.3825471401214599609 2.4360229969024658203 2.2502131462097167969 1.9859149456024169922 1.6898488998413085938 1.4035840034484863281 1.162994384765625 1.0723055601119995117 -99 -99 -99 -99 -99 -99 -99 -99 -99 -99 -99 -99 -99 -99 -99 -99 -99 -99 -99 -99 -99 -99 -99 -99 -99 -99 -99 -99 -99 -99 -99 -99 -99 -99 -99 -99 2.091968536376953125 2.0589177608489990234 1.9567924737930297852 1.7994712591171264648 1.7008481025695800781 1.7328217029571533203 1.8943129777908325195 2.0938203334808349609 2.2982037067413330078 2.4346446990966796875 2.4930775165557861328 2.5663990974426269531 2.5752773284912109375 2.5274195671081542969 2.4825055599212646484 2.4106738567352294922 2.2202632427215576172 1.5426404476165771484 0.42910820245742797852 -0.53895711898803710938 -1.0609419345855712891 -1.1103055477142333984 -0.99184000492095947266 -0.90121620893478393555 -0.81541556119918823242 -1.0147533416748046875 -1.1540074348449707031 -0.82894015312194824219 -0.43756997585296630859 -0.36160740256309509277 -0.37346374988555908203 -0.24456831812858581543 0.39726248383522033691 1.4932450056076049805 2.2260024547576904297 2.4779682159423828125 2.5564267635345458984 2.5517444610595703125 2.510196685791015625 2.4424166679382324219 2.3470635414123535156 2.2950277328491210938 2.2547919750213623047 2.2044520378112792969 2.1815354824066162109 2.1762266159057617188 2.1816945075988769531 2.2088682651519775391 2.2592561244964599609 2.2924325466156005859 2.0054633617401123047 1.2823579311370849609 0.39656654000282287598 -0.33893731236457824707 -0.78205585479736328125 -1.1252347230911254883 -1.3516101837158203125 -1.4699236154556274414 -1.5832026004791259766 -1.6935894489288330078 -1.7293622493743896484 -1.8847711086273193359 -2.0206317901611328125 -1.8816984891891479492 -1.7557712793350219727 -1.7999331951141357422 -1.8032888174057006836 -1.8238556385040283203 -1.8823523521423339844 -2.1099796295166015625 -2.1364715099334716797 -2.0843782424926757812 -2.0413255691528320312 -2.0178511142730712891 -1.8236521482467651367 -1.7174789905548095703 -1.6384774446487426758 -1.8099647760391235352 -1.8854470252990722656 -1.8339276313781738281 -1.6617974042892456055 -1.3511055707931518555 -1.1551946401596069336 -1.115071415901184082 -1.0523433685302734375 -0.91348981857299804688 -0.81760966777801513672 -0.76291370391845703125 -0.90538078546524047852 -1.4441297054290771484 -1.983609318733215332 -2.0437169075012207031 -1.7383635044097900391 -1.6444748640060424805
-0.61741060018539428711 -0.59343481063842773438 -0.031084902584552764893 0.59591972827911376953 0.94817805290222167969 1.4121555089950561523 1.9554687738418579102 2.3402779102325439453 2.4784169197082519531 2.5264580249786376953 2.5862193107604980469 2.6486837863922119141 2.5306172370910644531 2.3449542522430419922 2.2195799350738525391 2.1796610355377197266 2.2159671783447265625 2.2652122974395751953 2.0780806541442871094 1.8159768581390380859 1.5684058666229248047 1.2931293249130249023 1.027588963508605957 0.79159873723983764648 0.70920073986053466797 -99 -99 -99 -99 -99 -99 -99 -99 -99 -99 -99 -99 -99 -99 -99 -99 -99 -99 -99 -99 -99 -99 -99 -99 -99 -99 -99 -99 -99 -99 -99 -99 -99 -99 -99 -99 1.9404729604721069336 1.8931051492691040039 1.8028930425643920898 1.6871204376220703125 1.605243682861328125 1.5846180915832519531 1.6549925804138183594 1.7756321430206298828 1.9701100587844848633 2.2107615470886230469 2.4079890251159667969 2.4996016025543212891 2.4897515773773193359 2.4487254619598388672 2.4692380428314208984 2.4746499061584472656 2.3784005641937255859 2.0720973014831542969 1.2299735546112060547 0.0020996206440031528473 -0.75913542509078979492 -0.83038604259490966797 -0.69644325971603393555 -0.57368880510330200195 -0.53575658798217773438 -0.81533741950988769531 -1.1147845983505249023 -1.0366470813751220703 -0.73414027690887451172 -0.55271917581558227539 -0.38429200649261474609 -0.0013398234732449054718 0.71097826957702636719 1.6673678159713745117 2.3003818988800048828 2.4776158332824707031 2.4845354557037353516 2.4649877548217773438 2.4536776542663574219 2.4313559532165527344 2.4097392559051513672 2.3207468986511230469 2.2653510570526123047 2.2474765777587890625 2.2444574832916259766 2.2678606510162353516 2.3038151264190673828 2.3624789714813232422 2.4299323558807373047 2.3785943984985351562 1.841799616813659668 0.97372990846633911133 0.095206588506698608398 -0.5310713648796081543 -0.91833692789077758789 -1.245381474494934082 -1.4280494451522827148 -1.4676903486251831055 -1.5460858345031738281 -1.6901198625564575195 -1.7341598272323608398 -1.9327142238616943359 -2.0616617202758789062 -1.9418479204177856445 -1.8045791387557983398 -1.6909986734390258789 -1.7144832611083984375 -1.8843595981597900391 -2.0037558078765869141 -2.1048514842987060547 -2.1449518203735351562 -2.1459064483642578125 -2.1565623283386230469 -2.1654965877532958984 -1.9929484128952026367 -1.6904195547103881836 -1.5550545454025268555 -1.6394953727722167969 -1.7448242902755737305 -1.6471478939056396484 -1.321604609489440918 -1.0087860822677612305 -0.98613923788070678711 -1.0361152887344360352 -1.0513550043106079102 -0.94817060232162475586 -0.74895322322845458984 -0.67254197597503662109 -0.84121853113174438477 -1.2248193025588989258 -1.7697058916091918945 -2.0500786304473876953 -1.9421510696411132812 -1.8801248073577880859
-0.70751351118087768555 -0.50642496347427368164 0.26735410094261169434 1.1253641843795776367 1.4415076971054077148 1.7391372919082641602 2.1225144863128662109 2.406970977783203125 2.5615398883819580078 2.6555941104888916016 2.6675875186920166016 2.6808750629425048828 2.5387256145477294922 2.3661530017852783203 2.2777025699615478516 2.2060787677764892578 2.1450562477111816406 1.9504244327545166016 1.5931733846664428711 1.3287957906723022461 1.1148918867111206055 0.8801409602165222168 0.63173007965087890625 0.42021551728248596191 0.33588376641273498535 -99 -99 -99 -99 -99 -99 -99 -99 -99 -99 -99 -99 -99 -99 -99 -99 -99 -99 -99 -99 -99 -99 -99 -99 -99 -99 -99 -99 -99 -99 -99 -99 -99 -99 -99 -99 -99 1.7560796737670898438 1.6818482875823974609 1.6469843387603759766 1.6160006523132324219 1.5866782665252685547 1.5663360357284545898 1.5614238977432250977 1.6669077873229980469 1.8998134136199951172 2.1656954288482666016 2.2828023433685302734 2.2921457290649414062 2.3435966968536376953 2.4298999309539794922 2.4677271842956542969 2.3836543560028076172 2.1356599330902099609 1.4006054401397705078 0.19326239824295043945 -0.56705653667449951172 -0.66353261470794677734 -0.56305074691772460938 -0.43168866634368896484 -0.37658083438873291016 -0.59280443191528320312 -1.005564570426940918 -1.1616079807281494141 -0.92948824167251586914 -0.61056494712829589844 -0.27486425638198852539 0.23729243874549865723 0.97917008399963378906 1.8032888174057006836 2.3350076675415039062 2.4832704067230224609 2.4869384765625 2.4927327632904052734 2.4828858375549316406 2.4478213787078857422 2.4087510108947753906 2.3301365375518798828 2.2871308326721191406 2.3033230304718017578 2.3167436122894287109 2.3316826820373535156 2.3291537761688232422 2.3175284862518310547 2.3184196949005126953 2.2108895778656005859 1.7010434865951538086 0.78315073251724243164 -0.10046860575675964355 -0.6711470484733581543 -1.0487439632415771484 -1.3194903135299682617 -1.4615558385848999023 -1.5505568981170654297 -1.5720001459121704102 -1.6539924144744873047 -1.8245040178298950195 -2.0148286819458007812 -2.0453646183013916016 -1.9638304710388183594 -1.9110996723175048828 -1.7984843254089355469 -1.7971810102462768555 -1.9471218585968017578 -2.0481812953948974609 -2.0743558406829833984 -2.1522727012634277344 -2.1421868801116943359 -2.1094529628753662109 -2.0192384719848632812 -1.9157944917678833008 -1.6804802417755126953 -1.5224460363388061523 -1.4957326650619506836 -1.4686181545257568359 -1.3516483306884765625 -1.0323834419250488281 -0.84840273857116699219 -1.0180889368057250977 -1.2276705503463745117 -1.4309784173965454102 -1.4209957122802734375 -1.1826835870742797852 -1.0444513559341430664 -1.065228581428527832 -1.3263847827911376953 -1.7674157619476318359 -2.0655853748321533203 -2.0766398906707763672 -2.0916717052459716797
-0.77010160684585571289 -0.30154269933700561523 0.61726653575897216797 1.6300729513168334961 2.0074396133422851562 2.1636297702789306641 2.2856931686401367188 2.4390976428985595703 2.5524885654449462891 2.5635840892791748047 2.5167627334594726562 2.4685044288635253906 2.4077317714691162109 2.3026435375213623047 2.2860429286956787109 2.1758105754852294922 2.0213401317596435547 1.6069673299789428711 1.1356143951416015625 0.82701677083969116211 0.62243443727493286133 0.43074551224708557129 0.2158473581075668335 0.035276293754577636719 -0.040101222693920135498 -99 -99 -99 -99 -99 -99 -99 -99 -99 -99 -99 -99 -99 -99 -99 -99 -99 -99 -99 -99 -99 -99 -99 -99 -99 -99 -99 -99 -99 -99 -99 -99 -99 -99 -99 -99 -99 -99 1.5691188573837280273 1.5530360937118530273 1.5762041807174682617 1.5662059783935546875 1.5233831405639648438 1.5368889570236206055 1.6163620948791503906 1.6889655590057373047 1.8304790258407592773 1.9947216510772705078 2.1089658737182617188 2.2292916774749755859 2.3448581695556640625 2.3766353130340576172 2.2914311885833740234 2.058193206787109375 1.3758844137191772461 0.27857324481010437012 -0.4037552177906036377 -0.51016587018966674805 -0.44444140791893005371 -0.34093567728996276855 -0.31714001297950744629 -0.55267387628555297852 -1.0059583187103271484 -1.2787338495254516602 -1.0187838077545166016 -0.51722425222396850586 -0.13172703981399536133 0.43784189224243164062 1.1630570888519287109 1.7783160209655761719 2.1704809665679931641 2.286556243896484375 2.2933754920959472656 2.3142340183258056641 2.3451597690582275391 2.3377902507781982422 2.301769256591796875 2.2446691989898681641 2.1980714797973632812 2.2048373222351074219 2.2214539051055908203 2.2564992904663085938 2.3180828094482421875 2.3134195804595947266 2.2091460227966308594 2.0722651481628417969 1.569392085075378418 0.61787050962448120117 -0.23329761624336242676 -0.7111937403678894043 -1.0102777481079101562 -1.2512177228927612305 -1.4383809566497802734 -1.5727354288101196289 -1.6267533302307128906 -1.6251704692840576172 -1.8122020959854125977 -1.9713418483734130859 -2.0321707725524902344 -2.0066773891448974609 -1.9497481584548950195 -1.8889650106430053711 -1.9112484455108642578 -1.9913699626922607422 -1.9417393207550048828 -1.7063611745834350586 -2.0240113735198974609 -1.8348444700241088867 -1.5917603969573974609 -1.8786711692810058594 -2.0372741222381591797 -1.8594411611557006836 -1.6689285039901733398 -1.4573414325714111328 -1.2132804393768310547 -1.0761609077453613281 -0.97627061605453491211 -0.88283699750900268555 -1.1107383966445922852 -1.4731179475784301758 -1.7834316492080688477 -1.7407897710800170898 -1.4649181365966796875 -1.3700199127197265625 -1.3941435813903808594 -1.7119090557098388672 -1.971181035041809082 -2.0669736862182617188 -2.1937451362609863281 -2.3192961215972900391
-0.59914314746856689453 0.23800963163375854492 1.2250679731369018555 2.1325848102569580078 2.3380463123321533203 2.3142919540405273438 2.3132719993591308594 2.4214053153991699219 2.4965016841888427734 2.3905026912689208984 2.3210692405700683594 2.3009264469146728516 2.3080565929412841797 2.2611820697784423828 2.1563255786895751953 2.0374391078948974609 1.786876678466796875 1.2709989547729492188 0.73373693227767944336 0.34216278791427612305 0.11255837976932525635 -0.052459929138422012329 -0.15703380107879638672 -0.19450969994068145752 -0.23134641349315643311 -0.2500159144401550293 -99 -99 -99 -99 -99 -99 -99 -99 -99 -99 -99 -99 -99 -99 -99 -99 -99 -99 -99 -99 -99 -99 -99 -99 -99 -99 -99 -99 -99 -99 -99 -99 -99 -99 -99 -99 -99 1.5360341072082519531 1.5434839725494384766 1.5598785877227783203 1.5310739278793334961 1.5000264644622802734 1.5460100173950195312 1.6149324178695678711 1.6212003231048583984 1.6848978996276855469 1.8366400003433227539 1.9855676889419555664 2.1146664619445800781 2.1980853080749511719 2.1957466602325439453 2.0527250766754150391 1.8623813390731811523 1.2734559774398803711 0.28571036458015441895 -0.28031441569328308105 -0.3675365149974822998 -0.33167552947998046875 -0.29959791898727416992 -0.39486324787139892578 -0.68773692846298217773 -1.0256842374801635742 -1.2248454093933105469 -1.0218149423599243164 -0.4795208275318145752 -0.0086949421092867851257 0.47788444161415100098 0.98781865835189819336 1.4118093252182006836 1.754268646240234375 2.0036113262176513672 2.0412375926971435547 1.9713665246963500977 1.8587158918380737305 1.8249831199645996094 1.9234851598739624023 2.0522165298461914062 2.0678536891937255859 2.0354895591735839844 2.0456438064575195312 2.1173944473266601562 2.2233018875122070312 2.3089520931243896484 2.2595355510711669922 2.0026943683624267578 1.3848015069961547852 0.45057886838912963867 -0.36456540226936340332 -0.8222052454948425293 -1.0859793424606323242 -1.3052059412002563477 -1.4717153310775756836 -1.5534149408340454102 -1.6302797794342041016 -1.6562173366546630859 -1.7061123847961425781 -1.7422227859497070312 -1.9872934818267822266 -2.1036102771759033203 -2.1360979080200195312 -2.0074629783630371094 -1.6595109701156616211 -1.6719595193862915039 -1.813714146614074707 -1.7367954254150390625 -2.0709590911865234375 -1.8865234851837158203 -1.7054053544998168945 -1.9801064729690551758 -2.1099679470062255859 -2.0735833644866943359 -1.9207144975662231445 -1.6216346025466918945 -1.3385956287384033203 -1.2179116010665893555 -1.2400538921356201172 -1.1388628482818603516 -1.3375786542892456055 -1.7128876447677612305 -1.8718838691711425781 -1.7840590476989746094 -1.6417512893676757812 -1.7345814704895019531 -1.838967442512512207 -2.1338875293731689453 -2.2456927299499511719 -2.2716188430786132812 -2.4449391365051269531 -2.6022677421569824219
0.19612871110439300537 1.1579861640930175781 1.9232152700424194336 2.3095524311065673828 2.3685498237609863281 2.3021328449249267578 2.2488932609558105469 2.3192362785339355469 2.3514535427093505859 2.2696142196655273438 2.2277252674102783203 2.2053713798522949219 2.1779947280883789062 2.044315338134765625 1.86872100830078125 1.7429319620132446289 1.4786672592163085938 0.94776183366775512695 0.39226892590522766113 -0.035126674920320510864 -0.25075611472129821777 -0.31768342852592468262 -0.30756500363349914551 -0.28318035602569580078 -0.2492879331111907959 -0.22773286700248718262 -99 -99 -99 -99 -99 -99 -99 -99 -99 -99 -99 -99 -99 -99 -99 -99 -99 -99 -99 -99 -99 -99 -99 -99 -99 -99 -99 -99 -99 -99 -99 -99 -99 -99 -99 -99 1.5232080221176147461 1.5366268157958984375 1.5556408166885375977 1.5652909278869628906 1.58824920654296875 1.6126482486724853516 1.6391215324401855469 1.6794053316116333008 1.7226754426956176758 1.7884958982467651367 1.901501774787902832 1.9936591386795043945 2.0603325366973876953 2.1127402782440185547 1.9395363330841064453 1.5554904937744140625 1.1665848493576049805 0.59715658426284790039 -0.019740147516131401062 -0.29385745525360107422 -0.3621998131275177002 -0.42245283722877502441 -0.49270647764205932617 -0.64567625522613525391 -0.92152696847915649414 -1.1829470396041870117 -1.3413066864013671875 -1.2358918190002441406 -0.80265581607818603516 -0.29751318693161010742 0.13892327249050140381 0.5398909449577331543 0.89512878656387329102 1.2093473672866821289 1.5308508872985839844 1.6896935701370239258 1.4064624309539794922 0.91552728414535522461 0.66212821006774902344 0.80846619606018066406 1.2078967094421386719 1.5490323305130004883 1.7732977867126464844 1.884534001350402832 1.9604325294494628906 2.1342294216156005859 2.3091614246368408203 2.1686966419219970703 1.6619641780853271484 0.97493195533752441406 0.17598125338554382324 -0.54901409149169921875 -0.98917382955551147461 -1.2556511163711547852 -1.4619981050491333008 -1.5598163604736328125 -1.5288094282150268555 -1.6058282852172851562 -1.6755479574203491211 -1.6638511419296264648 -1.737795710563659668 -1.9500271081924438477 -2.0828199386596679688 -2.0924766063690185547 -1.9384791851043701172 -1.7002527713775634766 -1.5470906496047973633 -1.6376247406005859375 -1.8545759916305541992 -2.1277904510498046875 -2.0236680507659912109 -1.8152182102203369141 -1.8230632543563842773 -2.0118317604064941406 -2.1866304874420166016 -2.0855324268341064453 -1.8110235929489135742 -1.5910660028457641602 -1.5135825872421264648 -1.5233771800994873047 -1.3889783620834350586 -1.5877828598022460938 -1.9575715065002441406 -1.9334181547164916992 -1.807886958122253418 -1.8373571634292602539 -1.9952538013458251953 -2.1541664600372314453 -2.2706954479217529297 -2.4660282135009765625 -2.4926605224609375 -2.6330106258392333984 -2.8050017356872558594
1.3817548751831054688 2.0462763309478759766 2.244049072265625 2.2813386917114257812 2.3406746387481689453 2.3016822338104248047 2.2122678756713867188 2.1932103633880615234 2.1808907985687255859 2.1961410045623779297 2.1627395153045654297 2.0934686660766601562 2.0417642593383789062 1.7821481227874755859 1.5086652040481567383 1.3699731826782226562 1.1077238321304321289 0.62631791830062866211 0.06844590604305267334 -0.37773856520652770996 -0.47393512725830078125 -0.30677247047424316406 -0.27693384885787963867 -0.30019086599349975586 -0.23944769799709320068 -0.2045094221830368042 -0.20810982584953308105 -99 -99 -99 -99 -99 -99 -99 -99 -99 -99 -99 -99 -99 -99 -99 -99 -99 -99 -99 -99 -99 -99 -99 -99 -99 -99 -99 -99 -99 -99 -99 -99 -99 -99 -99 1.5335680246353149414 1.4986441135406494141 1.4904385805130004883 1.5131268501281738281 1.557529449462890625 1.5922085046768188477 1.6093810796737670898 1.6712639331817626953 1.8065903186798095703 1.9268280267715454102 2.028369903564453125 2.1032586097717285156 2.1434571743011474609 1.9864296913146972656 1.5190969705581665039 0.98478150367736816406 0.4442653656005859375 -0.091929681599140167236 -0.41313272714614868164 -0.538593292236328125 -0.64048784971237182617 -0.747951507568359375 -0.85518193244934082031 -0.96686214208602905273 -1.1009918451309204102 -1.2363523244857788086 -1.3824112415313720703 -1.356211543083190918 -1.0901793241500854492 -0.76935231685638427734 -0.40715709328651428223 0.0074669951573014259338 0.34890401363372802734 0.63523155450820922852 0.92932718992233276367 1.1053051948547363281 0.84303432703018188477 0.22413748502731323242 -0.21443536877632141113 -0.18041965365409851074 0.23262369632720947266 0.77814537286758422852 1.2856155633926391602 1.6682715415954589844 1.9469491243362426758 2.2198650836944580078 2.2446002960205078125 1.8163930177688598633 1.1627258062362670898 0.51209080219268798828 -0.14554822444915771484 -0.72555041313171386719 -1.1042463779449462891 -1.4040977954864501953 -1.6177729368209838867 -1.6587660312652587891 -1.5827810764312744141 -1.6410530805587768555 -1.7083644866943359375 -1.7035261392593383789 -1.7691439390182495117 -2.0040266513824462891 -2.1049940586090087891 -2.0751147270202636719 -1.9312156438827514648 -1.8152570724487304688 -1.6712659597396850586 -1.6547037363052368164 -1.8293650150299072266 -2.0252349376678466797 -1.9056924581527709961 -1.6128391027450561523 -1.5937073230743408203 -1.9307855367660522461 -2.1379232406616210938 -1.9759328365325927734 -1.7952860593795776367 -1.5438672304153442383 -1.3973248004913330078 -1.4285653829574584961 -1.4989120960235595703 -1.8767491579055786133 -2.23584747314453125 -2.1326823234558105469 -1.9831547737121582031 -2.0683989524841308594 -2.2551519870758056641 -2.4885718822479248047 -2.4651815891265869141 -2.6176655292510986328 -2.6912441253662109375 -2.7985959053039550781 -2.9879291057586669922
2.1468462944030761719 2.2879116535186767578 2.3439457416534423828 2.3521542549133300781 2.3426587581634521484 2.2582554817199707031 2.2262284755706787109 2.1884245872497558594 2.1081793308258056641 2.1303198337554931641 2.0491607189178466797 1.9804669618606567383 1.9353216886520385742 1.5621805191040039062 1.1576263904571533203 0.97878777980804443359 0.68905842304229736328 0.28455173969268798828 -0.21468181908130645752 -0.57924884557723999023 -0.63338351249694824219 -0.46098229289054870605 -0.34006765484809875488 -0.24123822152614593506 -0.19938808679580688477 -0.19216804206371307373 -0.17797087132930755615 -99 -99 -99 -99 -99 -99 -99 -99 -99 -99 -99 -99 -99 -99 -99 -99 -99 -99 -99 -99 -99 -99 -99 -99 -99 -99 -99 -99 -99 -99 -99 -99 -99 -99 1.5548783540725708008 1.5255384445190429688 1.4679000377655029297 1.4802128076553344727 1.5165812969207763672 1.5313558578491210938 1.5430787801742553711 1.5850756168365478516 1.6790556907653808594 1.8500925302505493164 2.0111327171325683594 2.1289615631103515625 2.2184760570526123047 2.2430872917175292969 1.8409155607223510742 1.0241354703903198242 0.38232821226119995117 -0.10888315737247467041 -0.49630212783813476562 -0.68107968568801879883 -0.81174504756927490234 -0.91849523782730102539 -1.0001940727233886719 -1.0679975748062133789 -1.1226041316986083984 -1.215865015983581543 -1.3291964530944824219 -1.4855612516403198242 -1.5458347797393798828 -1.4248932600021362305 -1.2507960796356201172 -1.0017284154891967773 -0.66402566432952880859 -0.30891680717468261719 0.002102678641676902771 0.25136473774909973145 0.40569448471069335938 0.23811489343643188477 -0.22635431587696075439 -0.52938467264175415039 -0.53118592500686645508 -0.19097761809825897217 0.35943466424942016602 0.86052972078323364258 1.2309855222702026367 1.5726363658905029297 1.967454075813293457 2.0429165363311767578 1.6045229434967041016 0.961437225341796875 0.33727940917015075684 -0.28967800736427307129 -0.84506958723068237305 -1.1946444511413574219 -1.4243067502975463867 -1.6696848869323730469 -1.6970018148422241211 -1.6335937976837158203 -1.6713159084320068359 -1.6020042896270751953 -1.6516571044921875 -1.840645909309387207 -1.8717539310455322266 -1.972232818603515625 -1.9291803836822509766 -1.7409850358963012695 -1.6382697820663452148 -1.5571675300598144531 -1.6206151247024536133 -1.8207058906555175781 -1.8788138628005981445 -1.8155342340469360352 -1.5442725419998168945 -1.4512578248977661133 -1.5760722160339355469 -1.8440483808517456055 -1.9107801914215087891 -1.765581965446472168 -1.4242992401123046875 -1.2779287099838256836 -1.3925151824951171875 -1.7315908670425415039 -2.1914362907409667969 -2.4413363933563232422 -2.3188607692718505859 -2.1932361125946044922 -2.2247831821441650391 -2.4746527671813964844 -2.6809985637664794922 -2.6901390552520751953 -2.7374813556671142578 -2.8713009357452392578 -2.9750874042510986328 -3.1744868755340576172
2.2764039039611816406 2.3001575469970703125 2.4202284812927246094 2.4185144901275634766 2.4045455455780029297 2.4067831039428710938 2.36847686767578125 2.2753989696502685547 2.1524026393890380859 2.0488009452819824219 1.9062665700912475586 1.8749184608459472656 1.8564879894256591797 1.4279499053955078125 0.86924767494201660156 0.56460386514663696289 0.23098996281623840332 -0.15491713583469390869 -0.57401800155639648438 -0.71987378597259521484 -0.62220793962478637695 -0.37269505858421325684 -0.26033544540405273438 -0.25427353382110595703 -0.21828080713748931885 -0.1615658104419708252 -0.11753272265195846558 -0.12816247344017028809 -99 -99 -99 -99 -99 -99 -99 -99 -99 -99 -99 -99 -99 -99 -99 -99 -99 -99 -99 -99 -99 -99 -99 -99 -99 -99 -99 -99 -99 -99 -99 -99 -99 1.5490736961364746094 1.5193177461624145508 1.4705061912536621094 1.5181957483291625977 1.5988832712173461914 1.6577385663986206055 1.6780524253845214844 1.700702667236328125 1.7824075222015380859 1.9401973485946655273 2.0840234756469726562 2.1899371147155761719 2.2617056369781494141 2.0679669380187988281 1.4045081138610839844 0.43731248378753662109 -0.2271226048469543457 -0.56407278776168823242 -0.78509515523910522461 -0.85043281316757202148 -0.93255263566970825195 -1.0225977897644042969 -1.1171571016311645508 -1.245213627815246582 -1.3435411453247070312 -1.4418894052505493164 -1.5835413932800292969 -1.7055557966232299805 -1.7454411983489990234 -1.6780061721801757812 -1.5193403959274291992 -1.2979664802551269531 -1.0878682136535644531 -0.8856646418571472168 -0.67111986875534057617 -0.46808147430419921875 -0.32931342720985412598 -0.40293025970458984375 -0.64820611476898193359 -0.81897729635238647461 -0.78766298294067382812 -0.45827466249465942383 0.018178876489400863647 0.42332834005355834961 0.67539370059967041016 0.97934126853942871094 1.4217854738235473633 1.7361632585525512695 1.5020831823348999023 0.91643941402435302734 0.3152052462100982666 -0.26371854543685913086 -0.78882181644439697266 -1.1678521633148193359 -1.4020664691925048828 -1.5865532159805297852 -1.6998504400253295898 -1.6766695976257324219 -1.6495637893676757812 -1.4734231233596801758 -1.4327054023742675781 -1.5681899785995483398 -1.6973955631256103516 -1.8337457180023193359 -1.7352439165115356445 -1.5132803916931152344 -1.4307981729507446289 -1.4258573055267333984 -1.5439187288284301758 -1.8611814975738525391 -1.9186208248138427734 -1.8022612333297729492 -1.4969524145126342773 -1.2869117259979248047 -1.2138035297393798828 -1.3406517505645751953 -1.5657651424407958984 -1.5398144721984863281 -1.2835679054260253906 -1.2166194915771484375 -1.5133464336395263672 -1.984070897102355957 -2.3310062885284423828 -2.5222294330596923828 -2.5654675960540771484 -2.5599963665008544922 -2.5516915321350097656 -2.5794703960418701172 -2.7350621223449707031 -2.9571321010589599609 -3.1541635990142822266 -3.1907870769500732422 -3.1652786731719970703 -3.249164581298828125
2.3086183071136474609 2.4257616996765136719 2.5104856491088867188 2.407428741455078125 2.4004590511322021484 2.45749664306640625 2.3903322219848632812 2.2752392292022705078 2.1019759178161621094 1.9067127704620361328 1.7569233179092407227 1.7874089479446411133 1.7852561473846435547 1.3387960195541381836 0.65064126253128051758 0.15585948526859283447 -0.28496161103248596191 -0.67198508977890014648 -0.77672994136810302734 -0.76573830842971801758 -0.59912824630737304688 -0.33740001916885375977 -0.23281976580619812012 -0.28481572866439819336 -0.20497164130210876465 -0.15526819229125976562 -0.10542402416467666626 -0.11944924294948577881 -99 -99 -99 -99 -99 -99 -99 -99 -99 -99 -99 -99 -99 -99 -99 -99 -99 -99 -99 -99 -99 -99 -99 -99 -99 -99 -99 -99 -99 -99 -99 -99 -99 1.588914036750793457 1.5805546045303344727 1.5402823686599731445 1.5823986530303955078 1.6433931589126586914 1.6852593421936035156 1.7539570331573486328 1.8323349952697753906 1.9303878545761108398 2.0663959980010986328 2.1522121429443359375 2.0761754512786865234 1.7911530733108520508 1.3034280538558959961 0.46669328212738037109 -0.33384850621223449707 -0.63603311777114868164 -0.71725690364837646484 -0.79044580459594726562 -0.91764050722122192383 -1.0844783782958984375 -1.2536814212799072266 -1.4060115814208984375 -1.5078779458999633789 -1.572607874870300293 -1.6124900579452514648 -1.662868499755859375 -1.7451484203338623047 -1.8048166036605834961 -1.7863869667053222656 -1.6796573400497436523 -1.5278017520904541016 -1.4063203334808349609 -1.3320472240447998047 -1.2462909221649169922 -1.1245217323303222656 -1.0242552757263183594 -1.0368015766143798828 -1.0684566497802734375 -1.0659868717193603516 -1.0135861635208129883 -0.77959942817687988281 -0.39285689592361450195 -0.061897661536931991577 0.091813772916793823242 0.36394172906875610352 0.82303696870803833008 1.2922691106796264648 1.2508903741836547852 0.71763092279434204102 0.091334626078605651855 -0.47716322541236877441 -0.94475221633911132812 -1.2580060958862304688 -1.4331649541854858398 -1.611878514289855957 -1.7401783466339111328 -1.6750987768173217773 -1.6183763742446899414 -1.362071990966796875 -1.2943477630615234375 -1.2988622188568115234 -1.6802800893783569336 -1.8772090673446655273 -1.7992814779281616211 -1.6529195308685302734 -1.6171796321868896484 -1.6166596412658691406 -1.5821866989135742188 -1.8624427318572998047 -2.0231180191040039062 -1.9402701854705810547 -1.7621957063674926758 -1.5636702775955200195 -1.3814622163772583008 -1.185818791389465332 -1.2228295803070068359 -1.2964195013046264648 -1.2847044467926025391 -1.4532724618911743164 -1.9053142070770263672 -2.207172393798828125 -2.3040349483489990234 -2.4433681964874267578 -2.5902545452117919922 -2.6732563972473144531 -2.6108551025390625 -2.4446055889129638672 -2.6513226032257080078 -3.0243535041809082031 -3.34276580810546875 -3.5384581089019775391 -3.4936339855194091797 -3.5306746959686279297
2.3994207382202148438 2.59223175048828125 2.6689527034759521484 2.5670716762542724609 2.4459466934204101562 2.4050745964050292969 2.3137514591217041016 2.1556150913238525391 1.8903130292892456055 1.7087678909301757812 1.64270782470703125 1.7336163520812988281 1.7141261100769042969 1.2601146697998046875 0.46213218569755554199 -0.28406292200088500977 -0.78972673416137695312 -0.80528980493545532227 -0.5510120391845703125 -0.40717923641204833984 -0.44250717759132385254 -0.40888193249702453613 -0.31965553760528564453 -0.247531890869140625 -0.1758124232292175293 -0.14325049519538879395 -0.1191136091947555542 -0.10959987342357635498 -0.091207332909107208252 -99 -99 -99 -99 -99 -99 -99 -99 -99 -99 -99 -99 -99 -99 -99 -99 -99 -99 -99 -99 -99 -99 -99 -99 -99 -99 -99 -99 -99 -99 -99 1.49211883544921875 1.588154911994934082 1.6516883373260498047 1.6451206207275390625 1.6373087167739868164 1.6360441446304321289 1.665490269660949707 1.786236882209777832 1.9209647178649902344 2.0558414459228515625 2.1850149631500244141 2.1483864784240722656 1.7160392999649047852 1.0343501567840576172 0.37196680903434753418 -0.23238614201545715332 -0.62388467788696289062 -0.81587302684783935547 -0.93085229396820068359 -1.0403625965118408203 -1.1694463491439819336 -1.2849150896072387695 -1.443198084831237793 -1.5505803823471069336 -1.5893303155899047852 -1.6112476587295532227 -1.6153917312622070312 -1.6643782854080200195 -1.7610357999801635742 -1.8467743396759033203 -1.8620257377624511719 -1.8148702383041381836 -1.7473632097244262695 -1.6691415309906005859 -1.5988535881042480469 -1.543415069580078125 -1.4771342277526855469 -1.4149901866912841797 -1.3979092836380004883 -1.3854182958602905273 -1.332577824592590332 -1.2630922794342041016 -1.1372147798538208008 -0.84183347225189208984 -0.60814571380615234375 -0.51269030570983886719 -0.21928203105926513672 0.25128474831581115723 0.69084924459457397461 0.76257646083831787109 0.31483000516891479492 -0.29404887557029724121 -0.77378505468368530273 -1.0515351295471191406 -1.2625706195831298828 -1.4387429952621459961 -1.5339338779449462891 -1.7069749832153320312 -1.6745496988296508789 -1.4538227319717407227 -1.1510822772979736328 -1.2245421409606933594 -1.3779145479202270508 -1.46457672119140625 -1.7938833236694335938 -1.8947732448577880859 -1.8253660202026367188 -1.8922828435897827148 -1.8761234283447265625 -1.7695553302764892578 -1.9173672199249267578 -2.0597569942474365234 -2.0519068241119384766 -2.0213558673858642578 -2.0020585060119628906 -1.8744366168975830078 -1.5387814044952392578 -1.2990987300872802734 -1.3579452037811279297 -1.6478972434997558594 -1.9435834884643554688 -2.132083892822265625 -2.0809979438781738281 -1.9348263740539550781 -2.1257426738739013672 -2.4018771648406982422 -2.5614781379699707031 -2.6893396377563476562 -2.7393481731414794922 -2.9107279777526855469 -3.1414887905120849609 -3.4385733604431152344 -3.7573993206024169922 -3.8632233142852783203 -99
2.4805541038513183594 2.7105720043182373047 2.7931160926818847656 2.7257218360900878906 2.5513224601745605469 2.4284660816192626953 2.2605104446411132812 1.9639856815338134766 1.6508989334106445312 1.5652718544006347656 1.6368027925491333008 1.7364351749420166016 1.6341271400451660156 1.0526993274688720703 0.14165951311588287354 -0.6674467921257019043 -0.96962523460388183594 -0.68424475193023681641 -0.25173449516296386719 -0.2528584897518157959 -0.38506767153739929199 -0.4009373784065246582 -0.28714671730995178223 -0.20592497289180755615 -0.1384865492582321167 -0.090474501252174377441 -0.10405225306749343872 -0.10479011386632919312 -0.08450870215892791748 -0.066452205181121826172 -99 -99 -99 -99 -99 -99 -99 -99 -99 -99 -99 -99 -99 -99 -99 -99 -99 -99 -99 -99 -99 -99 -99 -99 -99 -99 -99 -99 -99 1.4403259754180908203 1.4911152124404907227 1.5923933982849121094 1.6865503787994384766 1.682066798210144043 1.6455891132354736328 1.6706444025039672852 1.7812079191207885742 1.9278696775436401367 2.097194671630859375 2.2323250770568847656 2.2648096084594726562 1.9017101526260375977 1.1269528865814208984 0.37519845366477966309 -0.23395814001560211182 -0.6318823695182800293 -0.81976878643035888672 -0.95127463340759277344 -1.0962655544281005859 -1.196049809455871582 -1.2540661096572875977 -1.3573149442672729492 -1.5195652246475219727 -1.6349718570709228516 -1.6858388185501098633 -1.7308839559555053711 -1.722088932991027832 -1.7071335315704345703 -1.7677532434463500977 -1.83846282958984375 -1.8908599615097045898 -1.9229558706283569336 -1.9280397891998291016 -1.8966234922409057617 -1.8315138816833496094 -1.7811644077301025391 -1.7223221063613891602 -1.6970002651214599609 -1.7113732099533081055 -1.7012537717819213867 -1.6559164524078369141 -1.6131922006607055664 -1.4721884727478027344 -1.2786035537719726562 -1.1000553369522094727 -0.92692673206329345703 -0.69615823030471801758 -0.32597458362579345703 0.028866143897175788879 0.20126597583293914795 -0.13346141576766967773 -0.62187045812606811523 -0.87131708860397338867 -0.9894631505012512207 -1.2055823802947998047 -1.4837285280227661133 -1.5820826292037963867 -1.724894404411315918 -1.765216827392578125 -1.3858438730239868164 -0.83242297172546386719 -0.88185197114944458008 -1.1779614686965942383 -1.3536323308944702148 -1.6686474084854125977 -1.828713536262512207 -1.7834509611129760742 -1.7501702308654785156 -1.7558072805404663086 -1.4665545225143432617 -1.7137528657913208008 -2.0179905891418457031 -2.1585574150085449219 -2.1723062992095947266 -2.1922976970672607422 -2.1482744216918945312 -1.8258308172225952148 -1.4729554653167724609 -1.5354642868041992188 -1.8761364221572875977 -2.1102621555328369141 -2.0342907905578613281 -1.623209834098815918 -1.4601548910140991211 -1.8012682199478149414 -2.3236804008483886719 -2.5660021305084228516 -2.8167595863342285156 -3.2652616500854492188 -3.5033960342407226562 -3.6166484355926513672 -3.7717306613922119141 -3.9355952739715576172 -99 -99
2.4443993568420410156 2.6511108875274658203 2.7810294628143310547 2.7569186687469482422 2.581684112548828125 2.3756704330444335938 2.0490651130676269531 1.6768624782562255859 1.5494159460067749023 1.5793421268463134766 1.6809197664260864258 1.7479690313339233398 1.6187349557876586914 0.94893246889114379883 -0.048540592193603515625 -0.86674135923385620117 -1.0789809226989746094 -0.72066503763198852539 -0.30086830258369445801 -0.26198202371597290039 -0.35152304172515869141 -0.34347823262214660645 -0.26305747032165527344 -0.16813623905181884766 -0.091561935842037200928 -0.1181984245777130127 -0.11036590486764907837 -0.10659591108560562134 -0.087640047073364257812 -0.061265952885150909424 -0.047460969537496566772 -99 -99 -99 -99 -99 -99 -99 -99 -99 -99 -99 -99 -99 -99 -99 -99 -99 -99 -99 -99 -99 -99 -99 -99 -99 -99 -99 1.4207253456115722656 1.4937082529067993164 1.5759139060974121094 1.6749579906463623047 1.777858734130859375 1.7996066808700561523 1.7773318290710449219 1.8535560369491577148 1.9580500125885009766 2.0232343673706054688 2.1681478023529052734 2.3244593143463134766 2.1735234260559082031 1.4246157407760620117 0.45773348212242126465 -0.24504368007183074951 -0.66435891389846801758 -0.82722997665405273438 -0.87160331010818481445 -0.96485567092895507812 -1.1122227907180786133 -1.2398874759674072266 -1.3507746458053588867 -1.4269857406616210938 -1.5311602354049682617 -1.6761972904205322266 -1.7339975833892822266 -1.7793954610824584961 -1.8160624504089355469 -1.8240227699279785156 -1.8584802150726318359 -1.8908022642135620117 -1.9439716339111328125 -1.9581365585327148438 -1.9504889249801635742 -1.9648014307022094727 -1.9453619718551635742 -1.8896257877349853516 -1.8365819454193115234 -1.859971165657043457 -1.8670445680618286133 -1.8228932619094848633 -1.8007854223251342773 -1.7430138587951660156 -1.6434347629547119141 -1.571175694465637207 -1.454909205436706543 -1.3124676942825317383 -1.1762239933013916016 -0.98344206809997558594 -0.7330983281135559082 -0.38742008805274963379 -0.48846277594566345215 -0.74630635976791381836 -0.88828700780868530273 -1.0223006010055541992 -1.2649948596954345703 -1.5853474140167236328 -1.701718449592590332 -1.7467367649078369141 -1.7797380685806274414 -1.6711418628692626953 -1.1390099525451660156 -0.84360754489898681641 -1.1265134811401367188 -1.2806547880172729492 -1.4988255500793457031 -1.7783349752426147461 -1.726876378059387207 -1.3737926483154296875 -1.3572719097137451172 -1.152004241943359375 -1.5256533622741699219 -1.9557205438613891602 -2.1254985332489013672 -2.1627326011657714844 -2.2043368816375732422 -2.2253015041351318359 -1.943407893180847168 -1.4972623586654663086 -1.4414575099945068359 -1.7383136749267578125 -1.9990651607513427734 -1.9149196147918701172 -1.4314913749694824219 -1.2959064245223999023 -1.7252557277679443359 -2.361461639404296875 -2.7821390628814697266 -3.1785073280334472656 -3.6227240562438964844 -3.8143355846405029297 -3.9233057498931884766 -4.0000834465026855469 -4.0467419624328613281 -99 -99
2.2878425121307373047 2.3992810249328613281 2.5187211036682128906 2.5969450473785400391 2.5780441761016845703 2.324920654296875 1.924718022346496582 1.5920754671096801758 1.5656657218933105469 1.6472362279891967773 1.740535736083984375 1.7797981500625610352 1.7188057899475097656 1.1728522777557373047 0.050849489867687225342 -0.89322233200073242188 -1.1288456916809082031 -0.83547252416610717773 -0.46304592490196228027 -0.32488411664962768555 -0.28851327300071716309 -0.23236924409866333008 -0.18689581751823425293 -0.12618674337863922119 -0.16368591785430908203 -0.20040020346641540527 -0.15038815140724182129 -0.12019518762826919556 -0.092526569962501525879 -0.066395632922649383545 -0.079333201050758361816 -0.13623803853988647461 -99 -99 -99 -99 -99 -99 -99 -99 -99 -99 -99 -99 -99 -99 -99 -99 -99 -99 -99 -99 -99 -99 -99 -99 -99 1.3956078290939331055 1.4640151262283325195 1.553469538688659668 1.6093322038650512695 1.7108311653137207031 1.8592345714569091797 1.936442255973815918 1.9944047927856445312 2.0734941959381103516 2.1318089962005615234 2.1916925907135009766 2.3552227020263671875 2.31122589111328125 1.8643219470977783203 0.99343812465667724609 -0.015245786868035793304 -0.58076661825180053711 -0.76352018117904663086 -0.83688753843307495117 -0.95395863056182861328 -1.0953773260116577148 -1.2704384326934814453 -1.4323767423629760742 -1.5382798910140991211 -1.6293178796768188477 -1.7059826850891113281 -1.7513990402221679688 -1.7552382946014404297 -1.8255164623260498047 -1.8874670267105102539 -1.8755774497985839844 -1.8962965011596679688 -1.928244471549987793 -1.9835687875747680664 -1.9722069501876831055 -1.9085757732391357422 -1.9194986820220947266 -1.9197319746017456055 -1.8701063394546508789 -1.8476269245147705078 -1.9040476083755493164 -1.951851963996887207 -1.9426635503768920898 -1.9721771478652954102 -1.9234205484390258789 -1.8458187580108642578 -1.8209570646286010742 -1.7810137271881103516 -1.6936445236206054688 -1.541653752326965332 -1.3436316251754760742 -1.1071283817291259766 -0.80838084220886230469 -0.75676143169403076172 -0.86526405811309814453 -0.98178708553314208984 -1.1300207376480102539 -1.3583316802978515625 -1.644888758659362793 -1.7059063911437988281 -1.691685795783996582 -1.7143579721450805664 -1.741709589958190918 -1.6401139497756958008 -1.4910292625427246094 -1.5640033483505249023 -1.4660227298736572266 -1.4321105480194091797 -1.7407799959182739258 -1.6906660795211791992 -1.2431883811950683594 -1.3862210512161254883 -1.5948534011840820312 -1.8113577365875244141 -1.9238326549530029297 -1.9403258562088012695 -2.0246558189392089844 -2.1493556499481201172 -2.1731095314025878906 -1.8746166229248046875 -1.6053277254104614258 -1.391162872314453125 -1.3947587013244628906 -1.6422185897827148438 -1.8156292438507080078 -1.6347614526748657227 -1.5552403926849365234 -1.9143007993698120117 -2.3648173809051513672 -2.8762784004211425781 -3.4629607200622558594 -3.8163731098175048828 -3.9427297115325927734 -4.0388307571411132812 -4.1114864349365234375 -4.1531672477722167969 -99 -99
2.1435866355895996094 2.2862393856048583984 2.3667857646942138672 2.4563784599304199219 2.531494140625 2.3735215663909912109 2.0690510272979736328 1.7005289793014526367 1.6005301475524902344 1.7455976009368896484 1.9867138862609863281 2.0983870029449462891 2.0421555042266845703 1.3771187067031860352 0.011005830951035022736 -0.93701827526092529297 -1.1049373149871826172 -0.76570230722427368164 -0.43850049376487731934 -0.31775686144828796387 -0.23187901079654693604 -0.15930223464965820312 -0.14971883594989776611 -0.22104443609714508057 -0.30052205920219421387 -0.27617269754409790039 -0.20666849613189697266 -0.16334937512874603271 -0.11442966759204864502 -0.074473768472671508789 -0.095734469592571258545 -0.13806836307048797607 -99 -99 -99 -99 -99 -99 -99 -99 -99 -99 -99 -99 -99 -99 -99 -99 -99 -99 -99 -99 -99 -99 -99 -99 1.3731970787048339844 1.408345341682434082 1.4730427265167236328 1.5939563512802124023 1.7119902372360229492 1.7557314634323120117 1.8076534271240234375 1.9565432071685791016 2.2058756351470947266 2.3783195018768310547 2.3960669040679931641 2.4076280593872070312 2.5168793201446533203 2.2405779361724853516 1.4091402292251586914 0.45038911700248718262 -0.34358686208724975586 -0.78706908226013183594 -0.98069691658020019531 -1.0967223644256591797 -1.1935790777206420898 -1.2470641136169433594 -1.3633323907852172852 -1.4853613376617431641 -1.5884337425231933594 -1.7187070846557617188 -1.7942831516265869141 -1.8196048736572265625 -1.8273659944534301758 -1.8925651311874389648 -1.9275640249252319336 -1.8740943670272827148 -1.8360869884490966797 -1.8290684223175048828 -1.8803895711898803711 -1.9068816900253295898 -1.8546307086944580078 -1.8686412572860717773 -1.8987883329391479492 -1.8788744211196899414 -1.8803725242614746094 -1.9274803400039672852 -2.0107965469360351562 -2.0646860599517822266 -2.0745935440063476562 -2.0119073390960693359 -1.9174444675445556641 -1.8642135858535766602 -1.8282028436660766602 -1.7387338876724243164 -1.6263307332992553711 -1.5154746770858764648 -1.3759933710098266602 -1.2558298110961914062 -1.1938049793243408203 -1.2535272836685180664 -1.3392767906188964844 -1.4140859842300415039 -1.5610612630844116211 -1.7158013582229614258 -1.7458432912826538086 -1.7096501588821411133 -1.6815041303634643555 -1.6828219890594482422 -1.753995060920715332 -1.7935140132904052734 -1.8379397392272949219 -1.7906701564788818359 -1.6916929483413696289 -1.7661975622177124023 -1.7513977289199829102 -1.6977686882019042969 -1.7086420059204101562 -1.8659389019012451172 -1.8774999380111694336 -1.8393216133117675781 -1.8458310365676879883 -1.9142177104949951172 -2.094997406005859375 -2.1504025459289550781 -1.9761831760406494141 -1.7602106332778930664 -1.5329124927520751953 -1.441794276237487793 -1.675154566764831543 -1.9584044218063354492 -2.0144143104553222656 -1.9806652069091796875 -2.2264435291290283203 -2.5307238101959228516 -3.0726015567779541016 -3.6684026718139648438 -3.9535458087921142578 -4.0728898048400878906 -4.1724686622619628906 -4.2433605194091796875 -4.2667679786682128906 -99 -99
1.8583601713180541992 2.2339076995849609375 2.367618560791015625 2.4274814128875732422 2.4763109683990478516 2.3725543022155761719 2.0869131088256835938 1.7063630819320678711 1.634511113166809082 1.8818606138229370117 2.2139918804168701172 2.2457461357116699219 1.8384568691253662109 0.94337648153305053711 -0.29540616273880004883 -1.0722724199295043945 -1.1363328695297241211 -0.76238048076629638672 -0.48415389657020568848 -0.34026038646697998047 -0.24605047702789306641 -0.18233005702495574951 -0.17869390547275543213 -0.26372450590133666992 -0.2526060640811920166 -0.18096193671226501465 -0.14858607947826385498 -0.12358140945434570312 -0.1140081360936164856 -0.11915515363216400146 -0.18689237534999847412 -0.1614007800817489624 -0.04373022913932800293 -99 -99 -99 -99 -99 -99 -99 -99 -99 -99 -99 -99 -99 -99 -99 -99 -99 1.5137857198715209961 1.4910678863525390625 1.4673699140548706055 1.4454809427261352539 1.4292229413986206055 1.4091346263885498047 1.44184112548828125 1.5297697782516479492 1.6084891557693481445 1.7592853307723999023 1.8892831802368164062 1.9647896289825439453 2.0513551235198974609 2.1998746395111083984 2.3599324226379394531 2.4808053970336914062 2.5354504585266113281 2.5640130043029785156 2.5375187397003173828 2.0890436172485351562 1.2050867080688476562 0.30479001998901367188 -0.40533673763275146484 -0.86052286624908447266 -1.1120973825454711914 -1.2544847726821899414 -1.3412288427352905273 -1.3593585491180419922 -1.4387084245681762695 -1.5943819284439086914 -1.7469865083694458008 -1.8412216901779174805 -1.8748724460601806641 -1.8756203651428222656 -1.8454365730285644531 -1.8414682149887084961 -1.8492566347122192383 -1.8567661046981811523 -1.8742046356201171875 -1.5499395132064819336 -1.4638655185699462891 -1.7599129676818847656 -1.8623319864273071289 -1.8610976934432983398 -1.8704048395156860352 -1.8772237300872802734 -1.8758410215377807617 -1.9010008573532104492 -1.9906394481658935547 -2.0526769161224365234 -2.0610494613647460938 -2.013820648193359375 -1.9724498987197875977 -1.9633957147598266602 -1.8863724470138549805 -1.817694544792175293 -1.7645809650421142578 -1.7088471651077270508 -1.6621915102005004883 -1.6010755300521850586 -1.5467658042907714844 -1.5709688663482666016 -1.6478924751281738281 -1.6692796945571899414 -1.6822273731231689453 -1.7727206945419311523 -1.7528020143508911133 -1.7054833173751831055 -1.6819291114807128906 -1.5583398342132568359 -1.6309756040573120117 -1.7439117431640625 -1.8414559364318847656 -1.9556745290756225586 -1.8695021867752075195 -1.8405737876892089844 -1.9306293725967407227 -2.0477426052093505859 -2.0820717811584472656 -1.935769200325012207 -1.8040611743927001953 -1.7401453256607055664 -1.8795998096466064453 -2.0372710227966308594 -2.1255669593811035156 -2.0474328994750976562 -1.8269989490509033203 -1.6894392967224121094 -1.5636235475540161133 -1.536336064338684082 -1.71662139892578125 -1.9066846370697021484 -2.0646390914916992188 -2.1815066337585449219 -2.4421544075012207031 -2.8985226154327392578 -3.4630279541015625 -3.8664331436157226562 -4.0817809104919433594 -4.2135710716247558594 -4.3170123100280761719 -4.3575758934020996094 -4.3622946739196777344 -99 -99
1.356495976448059082 1.9793862104415893555 2.3461143970489501953 2.4521467685699462891 2.4804041385650634766 2.3682076930999755859 2.0963885784149169922 1.8119156360626220703 1.8859528303146362305 2.1713280677795410156 2.4134790897369384766 2.2033240795135498047 1.2124283313751220703 0.19526721537113189697 -0.73931318521499633789 -1.2341467142105102539 -1.1905839443206787109 -0.86046099662780761719 -0.60642987489700317383 -0.41932439804077148438 -0.28849199414253234863 -0.21148198843002319336 -0.19612236320972442627 -0.22885070741176605225 -0.16026094555854797363 -0.098675705492496490479 -0.08806680142879486084 -0.1685892641544342041 -0.29367214441299438477 -0.37433978915214538574 -0.36864134669303894043 -0.12579183280467987061 0.098544865846633911133 0.2147572934627532959 -99 -99 -99 -99 -99 -99 -99 -99 -99 -99 -99 -99 -99 1.3863115310668945312 1.3876352310180664062 1.4656398296356201172 1.4913988113403320312 1.4734863042831420898 1.443709254264831543 1.4119988679885864258 1.4333757162094116211 1.5088080167770385742 1.6156901121139526367 1.7772423028945922852 1.9613940715789794922 2.1297030448913574219 2.2157888412475585938 2.2669532299041748047 2.312793731689453125 2.3749349117279052734 2.4526934623718261719 2.5248231887817382812 2.6295049190521240234 2.6826748847961425781 2.5056102275848388672 1.8764952421188354492 0.97712266445159912109 0.13663180172443389893 -0.51532018184661865234 -0.93679517507553100586 -1.1469738483428955078 -1.3138598203659057617 -1.5010398626327514648 -1.5591230392456054688 -1.5803128480911254883 -1.7154713869094848633 -1.8833853006362915039 -1.9256461858749389648 -1.8456571102142333984 -1.8405312299728393555 -1.8418865203857421875 -1.7691559791564941406 -1.7545984983444213867 -1.8445229530334472656 -1.9222558736801147461 -1.7513517141342163086 -1.681862950325012207 -1.7563889026641845703 -1.7860934734344482422 -1.8761246204376220703 -1.9202715158462524414 -1.8819791078567504883 -1.8054436445236206055 -1.7628178596496582031 -1.7297052145004272461 -1.7680090665817260742 -1.9041351079940795898 -1.9512513875961303711 -1.9684020280838012695 -1.9652011394500732422 -1.9131659269332885742 -1.9053384065628051758 -1.8910183906555175781 -1.8517242670059204102 -1.7882109880447387695 -1.7100299596786499023 -1.6839354038238525391 -1.7113150358200073242 -1.7623217105865478516 -1.766082763671875 -1.7299597263336181641 -1.7758654356002807617 -1.8075639009475708008 -1.7484749555587768555 -1.7631676197052001953 -1.7685210704803466797 -1.851376652717590332 -1.9159928560256958008 -2.0089931488037109375 -2.1217498779296875 -2.040119171142578125 -1.9426152706146240234 -2.0344324111938476562 -2.1891241073608398438 -2.2177278995513916016 -2.0476999282836914062 -1.8545618057250976562 -1.7166857719421386719 -1.8220829963684082031 -2.0497989654541015625 -2.1383695602416992188 -1.9614024162292480469 -1.7967247962951660156 -1.6458755731582641602 -1.4629163742065429688 -1.4354711771011352539 -1.5202927589416503906 -1.5461305379867553711 -1.7407680749893188477 -2.2021508216857910156 -2.6942009925842285156 -3.1053290367126464844 -3.5804493427276611328 -3.918121337890625 -4.1105427742004394531 -4.2885026931762695312 -4.4141707420349121094 -4.4444661140441894531 -4.4459137916564941406 -99 -99
0.83685916662216186523 1.529719233512878418 2.1019625663757324219 2.3280456066131591797 2.3266191482543945312 2.3101406097412109375 2.1731610298156738281 2.1263370513916015625 2.2434129714965820312 2.4280421733856201172 2.5587573051452636719 2.2173342704772949219 0.96938693523406982422 -0.30776414275169372559 -1.1065604686737060547 -1.3387982845306396484 -1.1993718147277832031 -0.921466827392578125 -0.73448330163955688477 -0.53190129995346069336 -0.34151580929756164551 -0.23568217456340789795 -0.22106416523456573486 -0.20474949479103088379 -0.12931796908378601074 -0.093095995485782623291 -0.13530053198337554932 -0.34367457032203674316 -0.52034819126129150391 -0.47193917632102966309 -0.19650249183177947998 0.085438549518585205078 0.27067878842353820801 0.4022292792797088623 0.54129403829574584961 0.64095997810363769531 0.74639159440994262695 0.81661385297775268555 -99 -99 -99 -99 1.3848532438278198242 1.3328733444213867188 1.3082017898559570312 1.3083198070526123047 1.3313188552856445312 1.3597372770309448242 1.3964310884475708008 1.455188751220703125 1.4684673547744750977 1.451740264892578125 1.4481809139251708984 1.5121853351593017578 1.6978795528411865234 1.8616390228271484375 1.9864426851272583008 2.1323463916778564453 2.2680497169494628906 2.3826425075531005859 2.4719665050506591797 2.5153489112854003906 2.5156614780426025391 2.5008122920989990234 2.5494589805603027344 2.6300168037414550781 2.5722417831420898438 2.3688707351684570312 2.0869011878967285156 1.5230476856231689453 0.65591669082641601562 -0.17707580327987670898 -0.77686923742294311523 -1.1156190633773803711 -1.280173182487487793 -1.4075454473495483398 -1.5515006780624389648 -1.6148985624313354492 -1.6500557661056518555 -1.7704486846923828125 -1.9080936908721923828 -1.8964449167251586914 -1.7999453544616699219 -1.8270746469497680664 -1.8137744665145874023 -1.6945931911468505859 -1.6275755167007446289 -1.6798167228698730469 -1.7240904569625854492 -1.675595402717590332 -1.7082601785659790039 -1.7616354227066040039 -1.8002216815948486328 -1.9566103219985961914 -1.9758795499801635742 -1.7630802392959594727 -1.6568535566329956055 -1.5452833175659179688 -1.5978113412857055664 -1.7606321573257446289 -1.8415695428848266602 -1.8893314599990844727 -1.8864837884902954102 -1.916852116584777832 -1.9408743381500244141 -1.9343496561050415039 -1.8967970609664916992 -1.8307851552963256836 -1.7802889347076416016 -1.7445808649063110352 -1.7551950216293334961 -1.7903215885162353516 -1.8094823360443115234 -1.7971599102020263672 -1.7734299898147583008 -1.7967931032180786133 -1.8627463579177856445 -1.9017060995101928711 -1.9416713714599609375 -2.0221478939056396484 -2.1295530796051025391 -2.1727199554443359375 -2.2411389350891113281 -2.2831432819366455078 -2.2224338054656982422 -2.2097904682159423828 -2.2294325828552246094 -2.2941541671752929688 -2.2162373065948486328 -2.067020416259765625 -1.9764105081558227539 -1.903598785400390625 -1.8733316659927368164 -2.0526707172393798828 -2.1457331180572509766 -1.945476531982421875 -1.8653037548065185547 -1.7853248119354248047 -1.6540133953094482422 -1.5245300531387329102 -1.3220872879028320312 -1.2361217737197875977 -1.6430137157440185547 -2.2643754482269287109 -2.8337550163269042969 -3.3202886581420898438 -3.7318522930145263672 -3.9730045795440673828 -4.1454195976257324219 -4.3162865638732910156 -4.4525055885314941406 -4.5166401863098144531 -4.5288796424865722656 -99 -99
0.58482283353805541992 1.1664104461669921875 1.6458084583282470703 2.0244128704071044922 2.1278195381164550781 2.1281461715698242188 2.1550261974334716797 2.2586169242858886719 2.4049706459045410156 2.5839648246765136719 2.6603641510009765625 2.3302755355834960938 1.1327146291732788086 -0.34077590703964233398 -1.1644474267959594727 -1.3619275093078613281 -1.171963810920715332 -0.87803947925567626953 -0.71673214435577392578 -0.626529693603515625 -0.42753779888153076172 -0.30817189812660217285 -0.27544817328453063965 -0.19251902401447296143 -0.12607489526271820068 -0.12601700425148010254 -0.22691161930561065674 -0.40214774012565612793 -0.35913828015327453613 -0.13515706360340118408 0.086170323193073272705 0.2857418060302734375 0.45118120312690734863 0.59764593839645385742 0.70851981639862060547 0.79439073801040649414 0.88708293437957763672 1.0060354471206665039 1.161584019660949707 1.2475453615188598633 1.3134806156158447266 1.3790172338485717773 1.4007614850997924805 1.384792327880859375 1.3798519372940063477 1.3910415172576904297 1.4277437925338745117 1.485592961311340332 1.50750732421875 1.5290380716323852539 1.5847558975219726562 1.7159532308578491211 1.8366899490356445312 1.935578465461730957 2.1192622184753417969 2.29962158203125 2.4065983295440673828 2.5048575401306152344 2.5476584434509277344 2.59279632568359375 2.646625518798828125 2.6451675891876220703 2.5572047233581542969 2.453960418701171875 2.3414213657379150391 2.1976730823516845703 1.9932206869125366211 1.6972546577453613281 1.4300210475921630859 1.0400987863540649414 0.30352067947387695312 -0.48901036381721496582 -1.0419418811798095703 -1.3306771516799926758 -1.432749629020690918 -1.4284458160400390625 -1.5270735025405883789 -1.4919993877410888672 -1.4978173971176147461 -1.7898572683334350586 -1.9278060197830200195 -1.9511895179748535156 -1.8892644643783569336 -1.8665801286697387695 -1.8425272703170776367 -1.7509652376174926758 -1.6590820550918579102 -1.6281988620758056641 -1.6383568048477172852 -1.5693477392196655273 -1.5632697343826293945 -1.6963478326797485352 -1.8536596298217773438 -1.9886673688888549805 -1.9250476360321044922 -1.7707581520080566406 -1.7192605733871459961 -1.3054381608963012695 -1.3223623037338256836 -1.749675750732421875 -1.8759953975677490234 -1.8978782892227172852 -1.8806309700012207031 -1.8838176727294921875 -1.906056523323059082 -1.9289427995681762695 -1.8920966386795043945 -1.8057551383972167969 -1.7794191837310791016 -1.7834782600402832031 -1.8235328197479248047 -1.8772698640823364258 -1.8496216535568237305 -1.8758131265640258789 -1.916880488395690918 -1.9126964807510375977 -1.9556766748428344727 -2.0336320400238037109 -2.0797407627105712891 -2.0986073017120361328 -2.1350395679473876953 -2.1941792964935302734 -2.3093392848968505859 -2.2820186614990234375 -2.2729668617248535156 -2.3306748867034912109 -2.3364644050598144531 -2.3089544773101806641 -2.1438069343566894531 -1.9594548940658569336 -1.966464996337890625 -2.0311312675476074219 -2.0444793701171875 -2.1228234767913818359 -2.1755940914154052734 -1.9829928874969482422 -1.900458216667175293 -1.8946580886840820312 -1.763495326042175293 -1.5613607168197631836 -1.3443176746368408203 -1.3357512950897216797 -1.7488753795623779297 -2.3234517574310302734 -2.8420910835266113281 -3.4251413345336914062 -3.8283076286315917969 -3.9924347400665283203 -4.1636624336242675781 -4.3276715278625488281 -4.4660539627075195312 -4.5666189193725585938 -4.6064906120300292969 -99 -99
