ncols 116
nrows 31
xllcorner 99.5215206266
yllcorner 16.2011777764
cellsize 1.15722698403
-1.158463358879089355e+00 -7.329097986221313477e-01 -6.635299324989318848e-01 -1.050584077835083008e+00 -1.441011071205139160e+00 -1.314483284950256348e+00 -1.093516469001770020e+00 -1.026616454124450684e+00 -1.115117073059082031e+00 -1.371314764022827148e+00 -1.585610032081604004e+00 -1.823843359947204590e+00 -2.044446945190429688e+00 -2.109962224960327148e+00 -1.936385035514831543e+00 -1.792742013931274414e+00 -1.351841330528259277e+00 -8.133934736251831055e-01 -4.950336813926696777e-01 -4.898224472999572754e-01 -7.930902242660522461e-01 -1.012993097305297852e+00 -1.266377687454223633e+00 -1.568027853965759277e+00 -1.727443814277648926e+00 -1.650443196296691895e+00 -1.510192751884460449e+00 -1.398883223533630371e+00 -1.257153391838073730e+00 -1.289874553680419922e+00 -1.236708283424377441e+00 -1.145699262619018555e+00 -1.281893610954284668e+00 -1.488317728042602539e+00 -1.660322546958923340e+00 -1.812091708183288574e+00 -1.902382493019104004e+00 -1.798665761947631836e+00 -1.708433628082275391e+00 -1.532325029373168945e+00 -1.388221025466918945e+00 -1.423562526702880859e+00 -1.386924862861633301e+00 -1.374641537666320801e+00 -1.339834451675415039e+00 -1.221625089645385742e+00 -1.149000883102416992e+00 -1.024207830429077148e+00 -9.455787539482116699e-01 -1.137116909027099609e+00 -1.433561086654663086e+00 -1.566025853157043457e+00 -1.626906156539916992e+00 -1.788620352745056152e+00 -1.405400156974792480e+00 -9.880973100662231445e-01 -1.169145584106445312e+00 -1.237689256668090820e+00 -1.297258496284484863e+00 -1.365383267402648926e+00 -1.435818195343017578e+00 -1.404567360877990723e+00 -1.515437126159667969e+00 -1.820553302764892578e+00 -1.914543509483337402e+00 -2.140398979187011719e+00 -2.366562366485595703e+00 -2.424797773361206055e+00 -2.545354604721069336e+00 -2.556457281112670898e+00 -2.521332025527954102e+00 -2.450780868530273438e+00 -2.420666217803955078e+00 -2.454834938049316406e+00 -2.440937757492065430e+00 -2.357534170150756836e+00 -2.287192821502685547e+00 -2.246642112731933594e+00 -2.165267467498779297e+00 -2.003415125341234670e+00 -1.822572844953356253e+00 -1.848451274366198049e+00 -1.937304633588610159e+00 -1.931747573346910940e+00 -1.997671383352098928e+00 -2.060611980886278616e+00 -1.924994128675280081e+00 -1.800641435117540823e+00 -1.875825184316454397e+00 -2.145984428853807913e+00 -2.330730694265184866e+00 -2.397933023900804983e+00 -2.388821619481859670e+00 -2.283253687352953420e+00 -2.170273321599779592e+00 -2.157711285085497366e+00 -2.219795483083544241e+00 -2.391759890050707327e+00 -2.574557083577929006e+00 -2.729996919631958008e+00 -2.814012289047241211e+00 -2.929598569869995117e+00 -3.048288822174072266e+00 -3.065952062606811523e+00 -3.076919555664062500e+00 -3.119324922561645508e+00 -3.190284729003906250e+00 -3.271033763885498047e+00 -3.326236248016357422e+00 -3.287250280380249023e+00 -3.211595773696899414e+00 -3.298408269882202148e+00 -3.701650619506835938e+00 -4.078666687011718750e+00 -4.153815269470214844e+00 -4.327994346618652344e+00
-1.467421770095825195e+00 -1.236010789871215820e+00 -1.291141390800476074e+00 -1.575049400329589844e+00 -1.756253957748413086e+00 -1.583712458610534668e+00 -1.334874033927917480e+00 -1.199452161788940430e+00 -1.286740660667419434e+00 -1.520428299903869629e+00 -1.629653334617614746e+00 -1.832258105278015137e+00 -2.058567762374877930e+00 -2.197082042694091797e+00 -2.037672281265258789e+00 -1.598971247673034668e+00 -8.937603235244750977e-01 -2.576029300689697266e-02 4.381965696811676025e-01 2.486172020435333252e-01 -3.725042939186096191e-01 -8.015083074569702148e-01 -1.216340303421020508e+00 -1.742165207862854004e+00 -1.964732527732849121e+00 -1.887046575546264648e+00 -1.633261084556579590e+00 -1.307276248931884766e+00 -1.174971342086791992e+00 -1.404987335205078125e+00 -1.525206208229064941e+00 -1.548956632614135742e+00 -1.667658090591430664e+00 -1.785139679908752441e+00 -1.850446105003356934e+00 -1.910611510276794434e+00 -2.072474241256713867e+00 -2.123008251190185547e+00 -1.969319820404052734e+00 -1.771203041076660156e+00 -1.551473617553710938e+00 -1.372949242591857910e+00 -1.198611497879028320e+00 -1.147848248481750488e+00 -1.090592265129089355e+00 -9.292614459991455078e-01 -8.668563961982727051e-01 -8.070212602615356445e-01 -7.449162602424621582e-01 -9.005216360092163086e-01 -1.230033397674560547e+00 -1.566751122474670410e+00 -1.892438888549804688e+00 -2.277369260787963867e+00 -1.810682535171508789e+00 -1.165855288505554199e+00 -1.345709443092346191e+00 -1.433372259140014648e+00 -1.367549419403076172e+00 -1.269392371177673340e+00 -1.258484840393066406e+00 -1.206794857978820801e+00 -1.280328989028930664e+00 -1.540502786636352539e+00 -1.719266891479492188e+00 -2.067975521087646484e+00 -2.402296066284179688e+00 -2.547886610031127930e+00 -2.636088132858276367e+00 -2.607642650604248047e+00 -2.553766250610351562e+00 -2.515962123870849609e+00 -2.497878074645996094e+00 -2.402280092239379883e+00 -2.348799228668212891e+00 -2.347185611724853516e+00 -2.306717872619628906e+00 -2.277101516723632812e+00 -2.241421240300951467e+00 -2.181494492025194631e+00 -2.070098417730150686e+00 -2.051032083959398733e+00 -2.036561268300829397e+00 -1.978731888265429006e+00 -1.945193665952501760e+00 -1.892043369741259085e+00 -1.625589984388170706e+00 -1.408852237195787893e+00 -1.593314069242296682e+00 -2.039182918996630178e+00 -2.308180588216600881e+00 -2.392266767949877249e+00 -2.424687641591845022e+00 -2.385578888387499319e+00 -2.326773184270678030e+00 -2.381083029241381155e+00 -2.447471159429369436e+00 -2.544734018773851858e+00 -2.652452963323412405e+00 -2.756268024444580078e+00 -2.869750261306762695e+00 -2.974413156509399414e+00 -3.081422090530395508e+00 -3.094297409057617188e+00 -3.102938175201416016e+00 -3.216628074645996094e+00 -3.308757543563842773e+00 -3.322904109954833984e+00 -3.467233180999755859e+00 -3.612951755523681641e+00 -3.676481008529663086e+00 -3.785981655120849609e+00 -4.017687320709228516e+00 -4.359099388122558594e+00 -4.218883037567138672e+00 -4.244479656219482422e+00
-1.737371802330017090e+00 -1.690655350685119629e+00 -1.745372295379638672e+00 -1.682904481887817383e+00 -1.611920237541198730e+00 -1.538577318191528320e+00 -1.462818026542663574e+00 -1.552128911018371582e+00 -1.453441262245178223e+00 -1.605116724967956543e+00 -1.542290687561035156e+00 -1.711157083511352539e+00 -1.949213385581970215e+00 -2.117233037948608398e+00 -1.993425726890563965e+00 -1.396211862564086914e+00 -3.812552988529205322e-01 6.430758237838745117e-01 1.242552161216735840e+00 9.070611596107482910e-01 1.869005337357521057e-02 -7.603457570075988770e-01 -1.431099414825439453e+00 -1.938209891319274902e+00 -2.104256391525268555e+00 -2.057889461517333984e+00 -1.853809952735900879e+00 -1.555495619773864746e+00 -1.407924056053161621e+00 -1.606610059738159180e+00 -1.681467413902282715e+00 -1.634073257446289062e+00 -1.632829666137695312e+00 -1.772814989089965820e+00 -1.960060000419616699e+00 -2.051226854324340820e+00 -2.150231361389160156e+00 -2.207553148269653320e+00 -2.062543153762817383e+00 -1.823981046676635742e+00 -1.619149804115295410e+00 -1.388423562049865723e+00 -1.067153096199035645e+00 -9.204532504081726074e-01 -8.520469069480895996e-01 -7.001463174819946289e-01 -6.108270287513732910e-01 -5.471551418304443359e-01 -6.163228750228881836e-01 -8.955945968627929688e-01 -1.189772844314575195e+00 -1.453433036804199219e+00 -1.767795205116271973e+00 -2.109316110610961914e+00 -1.757810831069946289e+00 -1.632096648216247559e+00 -2.193804264068603516e+00 -1.999552130699157715e+00 -1.521634578704833984e+00 -1.205596208572387695e+00 -1.130902647972106934e+00 -1.176648497581481934e+00 -1.240322113037109375e+00 -1.391636371612548828e+00 -1.445323824882507324e+00 -1.710394144058227539e+00 -2.131018638610839844e+00 -2.370069980621337891e+00 -2.538575649261474609e+00 -2.613200902938842773e+00 -2.605476856231689453e+00 -2.615826845169067383e+00 -2.586316585540771484e+00 -2.440060138702392578e+00 -2.314023017883300781e+00 -2.300595998764038086e+00 -2.285041111440477835e+00 -2.254042404622850881e+00 -2.217626112432299124e+00 -2.200074451894579397e+00 -2.151267069310961233e+00 -2.085287826986132131e+00 -1.977266329259691702e+00 -1.761015194387255178e+00 -1.517718332738695608e+00 -1.365734952421007620e+00 -1.234173077077684866e+00 -1.240489619703112112e+00 -1.505269187421617971e+00 -1.957621592016039358e+00 -2.249216097326097952e+00 -2.351937073201952444e+00 -2.377359884710131155e+00 -2.258395927877245413e+00 -2.193442839116869436e+00 -2.307084816427050100e+00 -2.474112051458178030e+00 -2.583954351873217092e+00 -2.656677978963671194e+00 -2.783191204071044922e+00 -2.915153980255126953e+00 -3.002871990203857422e+00 -3.094414472579956055e+00 -3.187029600143432617e+00 -3.251224279403686523e+00 -3.329891443252563477e+00 -3.332944631576538086e+00 -3.429568290710449219e+00 -3.606762409210205078e+00 -3.810707807540893555e+00 -3.960093975067138672e+00 -4.107269763946533203e+00 -4.067509651184082031e+00 -4.188393592834472656e+00 -4.359099388122558594e+00 -4.240850448608398438e+00
-1.860599040985107422e+00 -1.689516901969909668e+00 -1.549307346343994141e+00 -1.480899691581726074e+00 -1.347049355506896973e+00 -1.426052689552307129e+00 -1.524092674255371094e+00 -1.730539679527282715e+00 -1.588963389396667480e+00 -1.778146147727966309e+00 -1.501141667366027832e+00 -1.477777481079101562e+00 -1.734376072883605957e+00 -1.876141071319580078e+00 -1.708425283432006836e+00 -1.113426804542541504e+00 -9.548250585794448853e-02 8.887714147567749023e-01 1.589980721473693848e+00 1.205675959587097168e+00 3.772634565830230713e-01 -2.111941128969192505e-01 -1.223223090171813965e+00 -1.880373954772949219e+00 -1.795251488685607910e+00 -1.762485384941101074e+00 -1.728493690490722656e+00 -1.755593180656433105e+00 -1.774519681930541992e+00 -1.781169652938842773e+00 -1.727545261383056641e+00 -1.761391282081604004e+00 -1.799326777458190918e+00 -1.906131386756896973e+00 -2.083943367004394531e+00 -2.139682769775390625e+00 -2.153770446777343750e+00 -2.061004400253295898e+00 -1.891119956970214844e+00 -1.777875900268554688e+00 -1.645813107490539551e+00 -1.302568793296813965e+00 -8.976830244064331055e-01 -7.151563763618469238e-01 -6.522843837738037109e-01 -5.116409659385681152e-01 -4.018988013267517090e-01 -3.425623476505279541e-01 -4.793018102645874023e-01 -7.592318654060363770e-01 -9.761134982109069824e-01 -1.140151500701904297e+00 -1.387412190437316895e+00 -1.801624536514282227e+00 -1.706079244613647461e+00 -1.884720563888549805e+00 -2.455430507659912109e+00 -1.840253353118896484e+00 -1.217358827590942383e+00 -1.156735301017761230e+00 -1.189191579818725586e+00 -1.318998336791992188e+00 -1.309046864509582520e+00 -1.421757817268371582e+00 -1.468104720115661621e+00 -1.451964259147644043e+00 -1.790898561477661133e+00 -2.158401983709154592e+00 -2.427197712392626272e+00 -2.536821859807787405e+00 -2.531525391073046194e+00 -2.516376512975512014e+00 -2.398254888982592092e+00 -2.105294483632860647e+00 -1.813427585096178518e+00 -1.859295385808763967e+00 -2.115127581090746389e+00 -2.227701920003710256e+00 -2.189992207021532522e+00 -2.137076157064257131e+00 -2.092615622014818655e+00 -2.053678291768846975e+00 -1.940848487348375784e+00 -1.649398582906542288e+00 -1.349468487233934866e+00 -1.267571705312548147e+00 -1.368220704526720510e+00 -1.557433503598986135e+00 -1.812629359693346487e+00 -2.142340200872240530e+00 -2.342489737005053030e+00 -2.417187708349047170e+00 -2.357957380742845999e+00 -2.107968109578905569e+00 -1.997508066625414358e+00 -2.100282686681566702e+00 -2.249725597829637991e+00 -2.320626753301439749e+00 -2.462313431234179006e+00 -2.675655621022997366e+00 -2.915088891983032227e+00 -3.074968099594116211e+00 -3.160416126251220703e+00 -3.279870033264160156e+00 -3.339052200317382812e+00 -3.379709482192993164e+00 -3.445547103881835938e+00 -3.600354194641113281e+00 -3.771266698837280273e+00 -3.928046941757202148e+00 -4.070581912994384766e+00 -4.081771373748779297e+00 -4.107269763946533203e+00 -4.134330272674560547e+00 -4.188277244567871094e+00 -4.281368732452392578e+00
-1.679265975952148438e+00 -1.531324505805969238e+00 -1.227126359939575195e+00 -1.267877936363220215e+00 -1.335627079010009766e+00 -1.471993327140808105e+00 -1.595540523529052734e+00 -1.803401231765747070e+00 -1.906420707702636719e+00 -2.042339086532592773e+00 -1.728523015975952148e+00 -1.410908460617065430e+00 -1.378200531005859375e+00 -1.366469502449035645e+00 -1.103337168693542480e+00 -5.970071554183959961e-01 2.055037617683410645e-01 1.058308959007263184e+00 1.637780308723449707e+00 1.401854634284973145e+00 9.846636652946472168e-01 8.999652266502380371e-01 2.421286255121231079e-01 -7.156937122344970703e-01 -8.923675417900085449e-01 -1.008144021034240723e+00 -1.275064706802368164e+00 -1.573146224021911621e+00 -1.828411459922790527e+00 -1.943945765495300293e+00 -1.963654279708862305e+00 -2.016804695129394531e+00 -2.036353826522827148e+00 -2.072292566299438477e+00 -2.192083597183227539e+00 -2.223933458328247070e+00 -2.135823965072631836e+00 -1.934150099754333496e+00 -1.641139388084411621e+00 -1.496936082839965820e+00 -1.480872988700866699e+00 -1.164424300193786621e+00 -7.191743254661560059e-01 -5.216366052627563477e-01 -4.627061784267425537e-01 -3.430319130420684814e-01 -3.200199604034423828e-01 -2.841032445430755615e-01 -3.090545833110809326e-01 -5.432665944099426270e-01 -7.366284132003784180e-01 -9.482547640800476074e-01 -1.260479450225830078e+00 -1.705085873603820801e+00 -1.877555489540100098e+00 -1.689029932022094727e+00 -1.472090601921081543e+00 -1.117837548255920410e+00 -1.061385869979858398e+00 -1.271227240562438965e+00 -1.367043733596801758e+00 -1.487256050109863281e+00 -1.406105637550354004e+00 -1.442782402038574219e+00 -1.581456422805786133e+00 -1.639770287008104788e+00 -1.749944704503832327e+00 -1.834478634328661428e+00 -2.081742065877733694e+00 -2.317734974355516897e+00 -2.391457336873827444e+00 -2.405308741063890920e+00 -2.387803333730516897e+00 -2.229242819280443655e+00 -2.039025562734423147e+00 -2.065943973989305960e+00 -2.250037449331102835e+00 -2.322755592794237600e+00 -2.241210239858446585e+00 -2.107434767217455374e+00 -2.017712133855638967e+00 -2.009778278798876272e+00 -1.932343023748217092e+00 -1.647345798940477835e+00 -1.296114939184008108e+00 -1.166697758168993460e+00 -1.312706488103685842e+00 -1.582476633519945608e+00 -1.864946502179918753e+00 -2.118190544576464163e+00 -2.261955994100389944e+00 -2.286173361272631155e+00 -2.148667829961595999e+00 -1.827333467931566702e+00 -1.605341690511522756e+00 -1.592651265592394338e+00 -1.642949241132555471e+00 -1.824870007962999807e+00 -2.194510000676928030e+00 -2.559855001897631155e+00 -2.886056661605834961e+00 -3.096899032592773438e+00 -3.235451221466064453e+00 -3.356600284576416016e+00 -3.432751417160034180e+00 -3.477839231491088867e+00 -3.571581602096557617e+00 -3.755840063095092773e+00 -3.959729194641113281e+00 -4.115893363952636719e+00 -4.189139366149902344e+00 -4.129860877990722656e+00 -4.142810344696044922e+00 -4.153789043426513672e+00 -4.180568218231201172e+00 -4.273746490478515625e+00
-1.450647592544555664e+00 -1.450853943824768066e+00 -1.495578885078430176e+00 -1.449907422065734863e+00 -1.415820240974426270e+00 -1.429705619812011719e+00 -1.466973543167114258e+00 -1.719705939292907715e+00 -2.060893058776855469e+00 -2.223140001296997070e+00 -1.996567368507385254e+00 -1.579322457313537598e+00 -1.205382585525512695e+00 -7.730226516723632812e-01 -3.280988335609436035e-01 8.007715642452239990e-02 6.406170129776000977e-01 1.333223223686218262e+00 1.788254022598266602e+00 1.773372411727905273e+00 1.698407769203186035e+00 1.670832991600036621e+00 1.120410323143005371e+00 2.505444586277008057e-01 -1.533830724656581879e-02 -4.402098953723907471e-01 -9.557831883430480957e-01 -1.399141192436218262e+00 -1.743388891220092773e+00 -1.926325798034667969e+00 -2.029828548431396484e+00 -2.050300359725952148e+00 -2.088001728057861328e+00 -2.175726890563964844e+00 -2.312347412109375000e+00 -2.354400157928466797e+00 -2.152678489685058594e+00 -1.772083997726440430e+00 -1.439118504524230957e+00 -1.450783133506774902e+00 -1.507888674736022949e+00 -1.144597649574279785e+00 -5.817788839340209961e-01 -3.476890921592712402e-01 -3.770842254161834717e-01 -4.549393653869628906e-01 -5.799862742424011230e-01 -5.307762622833251953e-01 -4.111985564231872559e-01 -4.771157205104827881e-01 -5.265944600105285645e-01 -6.115022897720336914e-01 -8.870536088943481445e-01 -1.375186443328857422e+00 -1.607822060585021973e+00 -1.298938155174255371e+00 -1.095609545707702637e+00 -1.145253777503967285e+00 -1.308026194572448730e+00 -1.489328265190124512e+00 -1.574282646179199219e+00 -1.605391979217529297e+00 -1.582190632820129395e+00 -1.754714131355285645e+00 -1.929970026016235352e+00 -1.883697885007677542e+00 -1.763432043523607717e+00 -1.745047110051928030e+00 -1.909242528409777151e+00 -2.132308739156542288e+00 -2.277183073491869436e+00 -2.362062471837816702e+00 -2.392468708486376272e+00 -2.390095489949999319e+00 -2.346491354436693655e+00 -2.315783995122728811e+00 -2.286793249578295217e+00 -2.176932352514086233e+00 -1.939270752401171194e+00 -1.607125180692491995e+00 -1.480356830091295706e+00 -1.646290558309374319e+00 -1.825212019414720999e+00 -1.740531223745165335e+00 -1.508479851217089163e+00 -1.346265929670153128e+00 -1.262501257390795217e+00 -1.438974040479479299e+00 -1.783840793103991018e+00 -2.081938045949755178e+00 -2.246693628759203420e+00 -2.276162165136156545e+00 -2.112840670080004202e+00 -1.613844889135179983e+00 -1.204509275884447561e+00 -1.068969624967394338e+00 -1.136631387204943167e+00 -1.479087251157579885e+00 -1.992559450597582327e+00 -2.518500822515306936e+00 -2.850757122039794922e+00 -3.098909616470336914e+00 -3.344329118728637695e+00 -3.482239723205566406e+00 -3.555952787399291992e+00 -3.632604598999023438e+00 -3.732537746429443359e+00 -3.890556812286376953e+00 -4.059340953826904297e+00 -4.228548049926757812e+00 -4.177860260009765625e+00 -4.189139366149902344e+00 -4.146771430969238281e+00 -4.127010345458984375e+00 -4.107269763946533203e+00 -4.204113006591796875e+00
-1.274703502655029297e+00 -1.139396548271179199e+00 -1.255031347274780273e+00 -1.546545505523681641e+00 -1.476858377456665039e+00 -1.313880920410156250e+00 -1.362417340278625488e+00 -1.760766267776489258e+00 -2.078999280929565430e+00 -2.160608053207397461e+00 -1.989313244819641113e+00 -1.458573341369628906e+00 -9.270459413528442383e-01 -2.841194272041320801e-01 3.624549508094787598e-01 8.458383083343505859e-01 1.223157286643981934e+00 1.665329575538635254e+00 2.045049905776977539e+00 2.133957147598266602e+00 2.171043634414672852e+00 2.125289916992187500e+00 1.674658894538879395e+00 9.521033167839050293e-01 5.266575217247009277e-01 -1.423564106225967407e-01 -7.555201053619384766e-01 -1.242881536483764648e+00 -1.617938637733459473e+00 -1.844157099723815918e+00 -1.950376868247985840e+00 -1.933494687080383301e+00 -1.997800946235656738e+00 -2.146280050277709961e+00 -2.223215579986572266e+00 -2.212765693664550781e+00 -2.092752218246459961e+00 -1.922605752944946289e+00 -1.743885397911071777e+00 -1.673712849617004395e+00 -1.636625170707702637e+00 -1.208072423934936523e+00 -5.674849748611450195e-01 -3.902518749237060547e-01 -5.936509370803833008e-01 -8.105763792991638184e-01 -9.439462423324584961e-01 -8.633159995079040527e-01 -6.011949777603149414e-01 -4.500395357608795166e-01 -4.369584023952484131e-01 -4.984138309955596924e-01 -8.475420475006103516e-01 -1.431034207344055176e+00 -1.657904982566833496e+00 -1.318601489067077637e+00 -1.137062430381774902e+00 -1.298222899436950684e+00 -1.423015713691711426e+00 -1.451118350028991699e+00 -1.474246621131896973e+00 -1.615689039230346680e+00 -1.817600250244140625e+00 -2.044364452362060547e+00 -2.142290353775024414e+00 -2.026500242681322561e+00 -1.908719438047228323e+00 -1.949942487211046682e+00 -2.067822473974047170e+00 -2.164646404714403616e+00 -2.237990635366259085e+00 -2.264903086156664358e+00 -2.221337336034594045e+00 -2.219666498632250295e+00 -2.216053265065966116e+00 -2.119823235006151663e+00 -2.017801779241381155e+00 -1.924680727453051077e+00 -1.714494126767931448e+00 -1.454082506627855764e+00 -1.456548589200792776e+00 -1.731507914991198049e+00 -2.001806276769457327e+00 -2.036242741079149710e+00 -1.902457612485704885e+00 -1.641275304288683401e+00 -1.325000661344347463e+00 -1.350137608976183401e+00 -1.700563925237474905e+00 -2.042083996267137991e+00 -2.244646328420458303e+00 -2.269985931844530569e+00 -1.888457673520861135e+00 -1.282747643918810354e+00 -8.537231859872917994e-01 -7.043437537859063013e-01 -8.246833858202080592e-01 -1.277037518949327932e+00 -1.851120966405687795e+00 -2.333616035909471975e+00 -2.687395334243774414e+00 -2.971759557723999023e+00 -3.284661054611206055e+00 -3.567070484161376953e+00 -3.724936008453369141e+00 -3.809053182601928711e+00 -3.912160396575927734e+00 -4.098144531250000000e+00 -4.242449760437011719e+00 -4.176779747009277344e+00 -4.228548049926757812e+00 -4.186468601226806641e+00 -4.182909488677978516e+00 -4.159500122070312500e+00 -4.188109874725341797e+00 -4.191661834716796875e+00
-1.060972571372985840e+00 -9.067495465278625488e-01 -9.114101529121398926e-01 -1.368069529533386230e+00 -1.288966774940490723e+00 -1.112869143486022949e+00 -1.282313227653503418e+00 -1.747714161872863770e+00 -1.797834277153015137e+00 -1.696370482444763184e+00 -1.554869055747985840e+00 -1.138930678367614746e+00 -6.186840534210205078e-01 1.356161981821060181e-01 8.885817527770996094e-01 1.504049777984619141e+00 1.902443528175354004e+00 2.089778423309326172e+00 2.207636594772338867e+00 2.266183614730834961e+00 2.244843006134033203e+00 2.182726144790649414e+00 1.998302459716796875e+00 1.525445938110351562e+00 8.407277464866638184e-01 9.611731022596359253e-02 -5.676400661468505859e-01 -1.084523797035217285e+00 -1.538395643234252930e+00 -1.854298710823059082e+00 -1.968440413475036621e+00 -1.950877070426940918e+00 -1.948328852653503418e+00 -2.013294935226440430e+00 -2.100537061691284180e+00 -2.218987703323364258e+00 -2.213396310806274414e+00 -2.163460493087768555e+00 -2.083345174789428711e+00 -1.910196423530578613e+00 -1.619257450103759766e+00 -1.145416617393493652e+00 -6.965678334236145020e-01 -6.076568961143493652e-01 -8.378206491470336914e-01 -1.095870375633239746e+00 -1.209178090095520020e+00 -1.059745788574218750e+00 -7.690217494964599609e-01 -5.569459199905395508e-01 -5.261790752410888672e-01 -7.174191474914550781e-01 -1.227940678596496582e+00 -1.738415837287902832e+00 -1.669768571853637695e+00 -1.186008810997009277e+00 -1.083752393722534180e+00 -1.286297678947448730e+00 -1.385755300521850586e+00 -1.387810349464416504e+00 -1.523276925086975098e+00 -2.030986309051513672e+00 -2.297086954116821289e+00 -2.254451990127563477e+00 -2.253360748291015625e+00 -2.090561169118700491e+00 -1.959612625570116506e+00 -1.999321001500902639e+00 -2.088585632772264944e+00 -2.168860453100023733e+00 -2.247422474355516897e+00 -2.300459164113817678e+00 -2.292912262410936819e+00 -2.230360763997850881e+00 -2.099015968770800100e+00 -1.878841536969957815e+00 -1.685742634267626272e+00 -1.558573859662828909e+00 -1.414757150144396292e+00 -1.359690922231493460e+00 -1.564157265157518850e+00 -1.852492469281969534e+00 -2.018826263875780569e+00 -2.018883722753344045e+00 -1.805916923017321096e+00 -1.393299478025255667e+00 -9.812225279520134791e-01 -9.111169156740288599e-01 -1.193164723844347463e+00 -1.564621585340319143e+00 -1.879373448819933401e+00 -2.050605791539965139e+00 -1.848321932287035452e+00 -1.327394741506395803e+00 -8.605742630670647486e-01 -7.109905061433892115e-01 -8.163461861322502955e-01 -1.188457864255724417e+00 -1.655661123723803030e+00 -2.004271286458788381e+00 -2.439821958541870117e+00 -2.676170587539672852e+00 -2.748713970184326172e+00 -3.287351846694946289e+00 -3.748450994491577148e+00 -3.933112382888793945e+00 -4.136361122131347656e+00 -4.301742553710937500e+00 -4.214112281799316406e+00 -4.242449760437011719e+00 -4.206097126007080078e+00 -4.207221031188964844e+00 -4.198515892028808594e+00 -4.189139366149902344e+00 -4.190565586090087891e+00 -4.188436508178710938e+00
-8.831949830055236816e-01 -7.674597501754760742e-01 -6.843870878219604492e-01 -1.095905661582946777e+00 -1.119336605072021484e+00 -9.375666379928588867e-01 -1.213687896728515625e+00 -1.617684602737426758e+00 -1.330228328704833984e+00 -1.144427418708801270e+00 -9.998806715011596680e-01 -7.140142321586608887e-01 -2.289168238639831543e-01 5.203301906585693359e-01 1.321750283241271973e+00 1.967901587486267090e+00 2.215761423110961914e+00 2.241812467575073242e+00 2.309312582015991211e+00 2.366363048553466797e+00 2.297193527221679688e+00 2.185889244079589844e+00 2.177676916122436523e+00 1.960946917533874512e+00 1.214275002479553223e+00 4.402227997779846191e-01 -3.751782774925231934e-01 -1.097180008888244629e+00 -1.621803760528564453e+00 -1.952637553215026855e+00 -2.032613754272460938e+00 -2.049261331558227539e+00 -2.093243598937988281e+00 -2.117651462554931641e+00 -2.147691488265991211e+00 -2.241613149642944336e+00 -2.210670948028564453e+00 -2.114345788955688477e+00 -2.078765869140625000e+00 -1.969230771064758301e+00 -1.596183061599731445e+00 -1.091138124465942383e+00 -8.348962068557739258e-01 -8.758811950683593750e-01 -1.085944294929504395e+00 -1.298811912536621094e+00 -1.415707826614379883e+00 -1.319769978523254395e+00 -1.051230192184448242e+00 -7.916832566261291504e-01 -7.525611519813537598e-01 -9.919270277023315430e-01 -1.452425479888916016e+00 -2.011741638183593750e+00 -2.071559190750122070e+00 -1.409389734268188477e+00 -1.061295509338378906e+00 -1.236978411674499512e+00 -1.369672775268554688e+00 -1.423846840858459473e+00 -1.559292078018188477e+00 -1.951768279075622559e+00 -2.014799118041992188e+00 -1.872678637504577637e+00 -2.047307729721069336e+00 -2.070166128606615530e+00 -1.936479705304918753e+00 -1.942372697324572073e+00 -2.026706951589403616e+00 -2.108451384038744436e+00 -2.175049322576342092e+00 -2.211053865880785452e+00 -2.210201996297655569e+00 -2.158778685064135061e+00 -1.966882246465502249e+00 -1.641035097570238577e+00 -1.407735842199144827e+00 -1.349689858884630667e+00 -1.371178287000475393e+00 -1.484323161573229299e+00 -1.726964968175707327e+00 -1.929337876767931448e+00 -2.029250639409838186e+00 -2.010354536504564749e+00 -1.769958036870775686e+00 -1.353389638395128713e+00 -9.904020008752922877e-01 -8.679375228593926295e-01 -1.015949505300341116e+00 -1.310933845968065725e+00 -1.715928810567675100e+00 -2.084924238653002249e+00 -2.118678110570726858e+00 -1.699097531766710745e+00 -1.204475420446215139e+00 -1.024099367589769827e+00 -1.094630139798937307e+00 -1.287320393056688772e+00 -1.529809969396410452e+00 -1.845457553863525391e+00 -2.321547031402587891e+00 -2.709669351577758789e+00 -2.773829460144042969e+00 -3.384788990020751953e+00 -3.974797248840332031e+00 -4.186718463897705078e+00 -4.258338928222656250e+00 -4.232147693634033203e+00 -4.301742553710937500e+00 -4.229645729064941406e+00 -4.234346866607666016e+00 -4.215925693511962891e+00 -4.228548049926757812e+00 -4.199064731597900391e+00 -4.183143615722656250e+00 -4.167458057403564453e+00
-8.498256802558898926e-01 -8.199144601821899414e-01 -8.757436275482177734e-01 -1.039119362831115723e+00 -1.059513211250305176e+00 -9.680777788162231445e-01 -1.258183479309082031e+00 -1.572481513023376465e+00 -1.298656702041625977e+00 -9.935420751571655273e-01 -7.232930064201354980e-01 -3.939495682716369629e-01 1.516734957695007324e-01 8.827955722808837891e-01 1.632036447525024414e+00 2.183224439620971680e+00 2.316812276840209961e+00 2.318910837173461914e+00 2.402122497558593750e+00 2.443721771240234375e+00 2.342733144760131836e+00 2.268867015838623047e+00 2.381359577178955078e+00 2.268019676208496094e+00 1.488630890846252441e+00 5.264402627944946289e-01 -4.284752905368804932e-01 -1.145946264266967773e+00 -1.570473670959472656e+00 -1.896496295928955078e+00 -2.068850755691528320e+00 -2.141983270645141602e+00 -2.195128679275512695e+00 -2.218148708343505859e+00 -2.177392959594726562e+00 -2.132928133010864258e+00 -2.051383018493652344e+00 -2.043871164321899414e+00 -2.111258983612060547e+00 -2.018114089965820312e+00 -1.664845228195190430e+00 -1.257338881492614746e+00 -1.145151495933532715e+00 -1.244115233421325684e+00 -1.339093565940856934e+00 -1.414516091346740723e+00 -1.570381641387939453e+00 -1.603154897689819336e+00 -1.378656268119812012e+00 -1.091347575187683105e+00 -1.052052378654479980e+00 -1.273211956024169922e+00 -1.696959018707275391e+00 -2.238800525665283203e+00 -2.473207712173461914e+00 -1.864121675491333008e+00 -1.311982631683349609e+00 -1.336482048034667969e+00 -1.289159536361694336e+00 -1.292717814445495605e+00 -1.415370702743530273e+00 -1.805234074592590332e+00 -2.091357469558715820e+00 -2.036164522171020508e+00 -2.016179102392015920e+00 -1.992913502187548147e+00 -1.849383848638353811e+00 -1.753541844816027151e+00 -1.743299740285692678e+00 -1.628000515432177053e+00 -1.522889631719408499e+00 -1.630632775754747854e+00 -1.812869566411791311e+00 -1.886507290334520803e+00 -1.793627994985399710e+00 -1.669659274549303518e+00 -1.671862858266649710e+00 -1.760236400098619924e+00 -1.845682877034960256e+00 -1.950324552984056936e+00 -2.078948753804979788e+00 -2.141550796956835256e+00 -2.138635891408739553e+00 -2.065755146474657522e+00 -1.843263047666368948e+00 -1.594232696027575003e+00 -1.423289435834703909e+00 -1.191532748670397268e+00 -1.046759384603319631e+00 -1.233172076673326956e+00 -1.677113073797045217e+00 -2.053776520223436819e+00 -2.149192350835619436e+00 -1.953666943044481741e+00 -1.559677380056200491e+00 -1.315109866590319143e+00 -1.320221441716967092e+00 -1.442569273443041311e+00 -1.626778262586412893e+00 -1.947939157485961914e+00 -2.393766403198242188e+00 -2.708237409591674805e+00 -2.821579933166503906e+00 -3.490833044052124023e+00 -4.120211124420166016e+00 -4.384934902191162109e+00 -4.276664257049560547e+00 -4.258338928222656250e+00 -4.260683059692382812e+00 -4.258422374725341797e+00 -4.252768039703369141e+00 -4.242449760437011719e+00 -4.223194599151611328e+00 -4.216727256774902344e+00 -4.201186656951904297e+00 -4.191722393035888672e+00
-9.062545895576477051e-01 -9.936991333961486816e-01 -1.038663148880004883e+00 -1.101326704025268555e+00 -1.231979727745056152e+00 -1.265515089035034180e+00 -1.381255388259887695e+00 -1.478163838386535645e+00 -1.224962115287780762e+00 -6.409250497817993164e-01 -4.072193503379821777e-01 -1.115783900022506714e-01 3.315536677837371826e-01 9.916127920150756836e-01 1.731023430824279785e+00 2.284750699996948242e+00 2.423537492752075195e+00 2.437525033950805664e+00 2.499278545379638672e+00 2.484936237335205078e+00 2.267369985580444336e+00 2.233191728591918945e+00 2.491956472396850586e+00 2.345939636230468750e+00 1.507162928581237793e+00 4.844073355197906494e-01 -4.768752753734588623e-01 -1.173797249794006348e+00 -1.620670080184936523e+00 -1.900482773780822754e+00 -2.087354660034179688e+00 -2.193160533905029297e+00 -2.224726676940917969e+00 -2.185303211212158203e+00 -2.171658754348754883e+00 -2.162528038024902344e+00 -2.091266155242919922e+00 -2.062384128570556641e+00 -2.100941181182861328e+00 -2.058884859085083008e+00 -1.878229141235351562e+00 -1.615777850151062012e+00 -1.522337198257446289e+00 -1.592389583587646484e+00 -1.527819633483886719e+00 -1.472704410552978516e+00 -1.587620973587036133e+00 -1.669469356536865234e+00 -1.565411806106567383e+00 -1.384917736053466797e+00 -1.388540744781494141e+00 -1.601228117942810059e+00 -1.901534914970397949e+00 -1.973941206932067871e+00 -1.761821746826171875e+00 -1.478385686874389648e+00 -1.323657035827636719e+00 -1.280316829681396484e+00 -1.129961371421813965e+00 -1.124493002891540527e+00 -1.372830390930175781e+00 -1.752601861953735352e+00 -2.002413290471849905e+00 -2.026737230748949514e+00 -1.905936497182665335e+00 -1.760642307729540335e+00 -1.662177103490648733e+00 -1.618918078870592581e+00 -1.597565549344835745e+00 -1.395435470075426565e+00 -1.233194130391893850e+00 -1.335175651044664846e+00 -1.529249208898363577e+00 -1.659249680967150198e+00 -1.658038514585314260e+00 -1.629188316793261038e+00 -1.733043569059191213e+00 -1.928481834859667288e+00 -2.046598928899584280e+00 -2.087838190526781545e+00 -2.135134714574633108e+00 -2.108813065023241506e+00 -2.023146408529100881e+00 -1.938908832998095022e+00 -1.783448832959948049e+00 -1.606356757612047659e+00 -1.536208766431627737e+00 -1.508465903730211721e+00 -1.426386731595812307e+00 -1.499118822545824514e+00 -1.784989970655260549e+00 -2.014100569219408499e+00 -2.089654701680956350e+00 -1.968179958791552053e+00 -1.727817791433153616e+00 -1.555923479528246389e+00 -1.550662177533922659e+00 -1.674316781492052542e+00 -1.921930313110351562e+00 -2.242917537689208984e+00 -2.593860387802124023e+00 -2.994700193405151367e+00 -3.508090496063232422e+00 -3.979339599609375000e+00 -4.311530590057373047e+00 -4.272225379943847656e+00 -4.384934902191162109e+00 -4.286757469177246094e+00 -4.285361289978027344e+00 -4.264076232910156250e+00 -4.301742553710937500e+00 -4.251579284667968750e+00 -4.235312461853027344e+00 -4.227675437927246094e+00 -4.213633060455322266e+00 -4.205400943756103516e+00
-6.685702204704284668e-01 -6.159678697586059570e-01 -5.613079071044921875e-01 -5.992964506149291992e-01 -6.992611885070800781e-01 -7.267285585403442383e-01 -7.827775478363037109e-01 -8.152295947074890137e-01 -6.158105134963989258e-01 -1.125309914350509644e-01 -6.196619477123022079e-03 1.889325976371765137e-01 5.309847593307495117e-01 1.067973732948303223e+00 1.790674805641174316e+00 2.298886537551879883e+00 2.429978847503662109e+00 2.480003833770751953e+00 2.509347677230834961e+00 2.403316974639892578e+00 2.100792407989501953e+00 2.024138212203979492e+00 2.330324172973632812e+00 2.187119007110595703e+00 1.357379078865051270e+00 3.371614217758178711e-01 -6.091434955596923828e-01 -1.219886898994445801e+00 -1.652466416358947754e+00 -1.958765149116516113e+00 -2.071125030517578125e+00 -2.113008022308349609e+00 -2.166917324066162109e+00 -2.208404302597045898e+00 -2.152610063552856445e+00 -2.092454910278320312e+00 -2.078678607940673828e+00 -2.124738454818725586e+00 -2.156464815139770508e+00 -2.131699800491333008e+00 -2.057850122451782227e+00 -1.888766050338745117e+00 -1.695831656455993652e+00 -1.592534184455871582e+00 -1.551683545112609863e+00 -1.598271846771240234e+00 -1.731698989868164062e+00 -1.846144199371337891e+00 -1.743843555450439453e+00 -1.559877395629882812e+00 -1.631664991378784180e+00 -1.870957255363464355e+00 -2.076521396636962891e+00 -2.061960458755493164e+00 -1.756857752799987793e+00 -1.346646785736083984e+00 -1.181350350379943848e+00 -1.132145524024963379e+00 -9.793561100959777832e-01 -1.014559984207153320e+00 -1.369396567344665527e+00 -1.747029202909288870e+00 -1.896542924375353323e+00 -1.858702558011827932e+00 -1.698769229383287893e+00 -1.470866697759447561e+00 -1.391031521291552053e+00 -1.458894985647020803e+00 -1.560112732381639944e+00 -1.490823286504564749e+00 -1.291589992971239553e+00 -1.178254145116625295e+00 -1.312882560224352346e+00 -1.500888722867784963e+00 -1.476633923978624807e+00 -1.440319078893480764e+00 -1.573563354940233694e+00 -1.829409259290514456e+00 -2.033301609487352835e+00 -1.961799519986925588e+00 -1.779490011663256155e+00 -1.711476820440111624e+00 -1.743450420827684866e+00 -1.727579372854052053e+00 -1.499004023999987112e+00 -1.335635679693041311e+00 -1.487019079656420217e+00 -1.706838983030138479e+00 -1.775243538350878225e+00 -1.745710628957567678e+00 -1.690184610814867483e+00 -1.695550816983995901e+00 -1.796119111509142385e+00 -1.866425174207506643e+00 -1.805405992002306448e+00 -1.698519605130968557e+00 -1.721665876836595999e+00 -1.900095241994677053e+00 -2.162594795227050781e+00 -2.524598598480224609e+00 -2.892309427261352539e+00 -3.495368957519531250e+00 -4.049396038055419922e+00 -4.287362098693847656e+00 -4.192744255065917969e+00 -4.311530590057373047e+00 -4.280047893524169922e+00 -4.314771652221679688e+00 -4.306645870208740234e+00 -4.258338928222656250e+00 -4.273908138275146484e+00 -4.268375396728515625e+00 -4.248626232147216797e+00 -4.245963573455810547e+00 -4.228974342346191406e+00 -4.228548049926757812e+00
-6.322428584098815918e-02 4.789220169186592102e-02 9.880035370588302612e-02 6.298241764307022095e-02 1.010056287050247192e-01 1.159897297620773315e-01 6.841351836919784546e-02 3.177158907055854797e-02 1.602496802806854248e-01 5.029253959655761719e-01 5.775353312492370605e-01 6.177033782005310059e-01 7.897078394889831543e-01 1.139012217521667480e+00 1.642137765884399414e+00 2.147630929946899414e+00 2.364706993103027344e+00 2.434452056884765625e+00 2.379474401473999023e+00 2.185114622116088867e+00 1.936800599098205566e+00 1.897901058197021484e+00 2.080380439758300781e+00 1.907595276832580566e+00 1.014731407165527344e+00 -1.079353541135787964e-01 -9.303324818611145020e-01 -1.322350144386291504e+00 -1.604553222656250000e+00 -1.833116412162780762e+00 -1.954860448837280273e+00 -2.054571866989135742e+00 -2.127708673477172852e+00 -2.126904487609863281e+00 -2.088131189346313477e+00 -2.126126527786254883e+00 -2.115946531295776367e+00 -2.171666860580444336e+00 -2.244129657745361328e+00 -2.213664770126342773e+00 -2.081793785095214844e+00 -1.917503237724304199e+00 -1.828126788139343262e+00 -1.818971753120422363e+00 -1.842595338821411133e+00 -1.889642000198364258e+00 -1.911904454231262207e+00 -1.932912707328796387e+00 -1.775824427604675293e+00 -1.701655149459838867e+00 -1.838824391365051270e+00 -2.049420595169067383e+00 -2.170691967010498047e+00 -2.050320148468017578e+00 -1.775377869606018066e+00 -1.499314308166503906e+00 -1.431501150131225586e+00 -1.422828555107116699e+00 -1.273635268211364746e+00 -1.265626430511474609e+00 -1.525537985296068655e+00 -1.810107844800768362e+00 -1.864932793111620413e+00 -1.753843921155748831e+00 -1.511815327138720022e+00 -1.283291119069872366e+00 -1.271922605962572561e+00 -1.494678872556505667e+00 -1.703086393804369436e+00 -1.700498479337511526e+00 -1.571118253202257620e+00 -1.458458083600817190e+00 -1.517260688276110159e+00 -1.647580522031603323e+00 -1.639452951879320608e+00 -1.524438637227831350e+00 -1.542510050267992483e+00 -1.731974380941210256e+00 -1.821777718992052542e+00 -1.557209986181078420e+00 -1.223427909345446096e+00 -1.070798295469103323e+00 -1.016280668706713186e+00 -9.907454428384880885e-01 -8.731383857439141138e-01 -8.123727616975884303e-01 -1.010755198926744924e+00 -1.368951338262377249e+00 -1.537776845426378713e+00 -1.316609996290026174e+00 -1.050377148122606741e+00 -1.037348526449022756e+00 -1.246748226613817678e+00 -1.593274849386034475e+00 -1.801905053586779104e+00 -1.920070069761095510e+00 -2.076211470098314749e+00 -2.265842693776903616e+00 -2.502207517623901367e+00 -2.738218307495117188e+00 -3.164354085922241211e+00 -3.944235324859619141e+00 -4.370933055877685547e+00 -4.235897064208984375e+00 -4.287362098693847656e+00 -4.263385772705078125e+00 -4.293387889862060547e+00 -4.322896957397460938e+00 -4.384934902191162109e+00 -4.290285587310791016e+00 -4.287314414978027344e+00 -4.281542301177978516e+00 -4.262966156005859375e+00 -4.265653610229492188e+00 -4.242449760437011719e+00 -4.233210086822509766e+00
6.149247288703918457e-01 7.470445632934570312e-01 7.970113754272460938e-01 7.850628495216369629e-01 8.832694292068481445e-01 9.429006576538085938e-01 9.203889966011047363e-01 8.797392249107360840e-01 9.401688575744628906e-01 1.140017151832580566e+00 1.247943162918090820e+00 1.226304054260253906e+00 1.222530245780944824e+00 1.240079998970031738e+00 1.412214517593383789e+00 1.848307132720947266e+00 2.226655244827270508e+00 2.355388402938842773e+00 2.272959470748901367e+00 2.082848310470581055e+00 1.917103290557861328e+00 1.900330424308776855e+00 1.998377799987792969e+00 1.614241957664489746e+00 5.197449922561645508e-01 -5.203650593757629395e-01 -1.070531606674194336e+00 -1.291079640388488770e+00 -1.531097412109375000e+00 -1.778872251510620117e+00 -1.885709166526794434e+00 -1.914216995239257812e+00 -1.962359309196472168e+00 -1.986018419265747070e+00 -2.030944347381591797e+00 -2.130107402801513672e+00 -2.178067207336425781e+00 -2.173409223556518555e+00 -2.166628599166870117e+00 -2.160957813262939453e+00 -2.151046037673950195e+00 -2.114794731140136719e+00 -2.053702116012573242e+00 -2.066323518753051758e+00 -2.116473674774169922e+00 -2.048666954040527344e+00 -1.968358278274536133e+00 -1.954946994781494141e+00 -1.858345389366149902e+00 -1.805367350578308105e+00 -1.948871493339538574e+00 -2.104871034622192383e+00 -2.138106346130371094e+00 -1.929026722908020020e+00 -1.890521287918090820e+00 -2.073222875595092773e+00 -1.828137755393981934e+00 -1.529686212539672852e+00 -1.672650575637817383e+00 -1.897708892822265625e+00 -1.979729908437548147e+00 -1.930515545339403616e+00 -1.834127324552355276e+00 -1.652076858014879690e+00 -1.438188570470629202e+00 -1.360908287496386038e+00 -1.525301235647020803e+00 -1.855518358678637014e+00 -2.105507868261156545e+00 -2.153275030584154592e+00 -2.071826475591478811e+00 -1.942954438657579885e+00 -1.871654647321520315e+00 -1.889957922429857717e+00 -1.798674839467821585e+00 -1.481034654111681448e+00 -1.253929394216356741e+00 -1.227188843221483694e+00 -1.179892676801500784e+00 -9.998195347498040064e-01 -8.177138147066216334e-01 -7.704891142557244166e-01 -8.098514256189446314e-01 -8.743539628694634303e-01 -8.972345170686821803e-01 -9.665577587793450220e-01 -1.156113284559069143e+00 -1.290689485997972952e+00 -1.279417174787340628e+00 -1.106459158391771780e+00 -9.841298041055779322e-01 -1.089439886541185842e+00 -1.375944155187426077e+00 -1.760665911168871389e+00 -2.148213880986986624e+00 -2.422577398748217092e+00 -2.517329948873339163e+00 -2.625169992446899414e+00 -2.974691152572631836e+00 -3.440333843231201172e+00 -3.918040275573730469e+00 -4.382121086120605469e+00 -4.232429981231689453e+00 -4.370933055877685547e+00 -4.272070884704589844e+00 -4.280971527099609375e+00 -4.263878822326660156e+00 -4.311530590057373047e+00 -4.302084922790527344e+00 -4.303111076354980469e+00 -4.303705692291259766e+00 -4.300183296203613281e+00 -4.274719238281250000e+00 -4.301742553710937500e+00 -4.259122371673583984e+00 -4.247481346130371094e+00
1.272723913192749023e+00 1.434522747993469238e+00 1.482359409332275391e+00 1.545706510543823242e+00 1.653429269790649414e+00 1.742249250411987305e+00 1.761154532432556152e+00 1.732256054878234863e+00 1.755592465400695801e+00 1.846364974975585938e+00 1.904245138168334961e+00 1.738024234771728516e+00 1.488585233688354492e+00 1.375844478607177734e+00 1.403634309768676758e+00 1.609309315681457520e+00 2.005018711090087891e+00 2.151833057403564453e+00 2.137721538543701172e+00 2.090127229690551758e+00 2.034683465957641602e+00 1.979684472084045410e+00 1.946470618247985840e+00 1.443930506706237793e+00 3.090791106224060059e-01 -6.225130558013916016e-01 -1.062624335289001465e+00 -1.275123596191406250e+00 -1.493736743927001953e+00 -1.706184983253479004e+00 -1.826289892196655273e+00 -1.891734719276428223e+00 -1.936111927032470703e+00 -1.959740042686462402e+00 -1.972632288932800293e+00 -1.978420853614807129e+00 -2.060353517532348633e+00 -2.135778188705444336e+00 -2.191879034042358398e+00 -2.198031902313232422e+00 -2.230019092559814453e+00 -2.243220567703247070e+00 -2.163392066955566406e+00 -2.142125368118286133e+00 -2.259812593460083008e+00 -2.287989616394042969e+00 -2.292175769805908203e+00 -2.265324831008911133e+00 -2.157999038696289062e+00 -2.048245668411254883e+00 -2.052032709121704102e+00 -2.102890491485595703e+00 -1.965099573135375977e+00 -1.646234512329101562e+00 -1.966868996620178223e+00 -2.540787696838378906e+00 -2.154442548751831055e+00 -1.649036049842834473e+00 -1.678283572196960449e+00 -1.980293035507202148e+00 -2.135969656438646780e+00 -2.043951290578661428e+00 -1.893983977765856253e+00 -1.754951971502123342e+00 -1.731723445386705862e+00 -1.891431706876574026e+00 -2.114362257451830374e+00 -2.316407221288500295e+00 -2.426613348455248342e+00 -2.419293182821093069e+00 -2.317452209920702444e+00 -2.174222486944017874e+00 -2.067781227559862600e+00 -2.015770214528856741e+00 -1.838265436620531545e+00 -1.455289619893846975e+00 -1.091521399946032034e+00 -9.149591502855400904e-01 -9.181422767351250513e-01 -9.939868626306633814e-01 -1.046590107412157522e+00 -1.118353742093859182e+00 -1.211896556348619924e+00 -1.269953030080614553e+00 -1.332693475217638479e+00 -1.416504877538500295e+00 -1.439108508558092581e+00 -1.362039941282091604e+00 -1.282482760877428518e+00 -1.249701636762438284e+00 -1.290725725621996389e+00 -1.442468660802660452e+00 -1.728029626340685354e+00 -2.140396851033983694e+00 -2.580123680562792288e+00 -2.865417974920092092e+00 -2.983344316482543945e+00 -3.096326589584350586e+00 -3.315487384796142578e+00 -3.738361358642578125e+00 -4.310053348541259766e+00 -4.274770736694335938e+00 -4.382121086120605469e+00 -4.306284904479980469e+00 -4.313279151916503906e+00 -4.298064231872558594e+00 -4.287362098693847656e+00 -4.301178932189941406e+00 -4.303245544433593750e+00 -4.302379608154296875e+00 -4.316519737243652344e+00 -4.316639900207519531e+00 -4.258338928222656250e+00 -4.274186611175537109e+00 -4.270246982574462891e+00 -4.258685588836669922e+00
1.841101527214050293e+00 2.121318817138671875e+00 2.205463409423828125e+00 2.309132814407348633e+00 2.417808294296264648e+00 2.522981882095336914e+00 2.593491315841674805e+00 2.593259096145629883e+00 2.589110851287841797e+00 2.493809461593627930e+00 2.209854841232299805e+00 1.863519191741943359e+00 1.582481145858764648e+00 1.514708638191223145e+00 1.550228834152221680e+00 1.680622577667236328e+00 1.966736674308776855e+00 2.130825757980346680e+00 2.173557758331298828e+00 2.200799226760864258e+00 2.216487169265747070e+00 2.133820772171020508e+00 1.998453140258789062e+00 1.542528390884399414e+00 4.951521754264831543e-01 -5.467920303344726562e-01 -1.034178376197814941e+00 -1.239921927452087402e+00 -1.442946910858154297e+00 -1.663121223449707031e+00 -1.879056811332702637e+00 -2.021963596343994141e+00 -2.011539459228515625e+00 -1.911399245262145996e+00 -1.820936679840087891e+00 -1.858937382698059082e+00 -2.055492639541625977e+00 -2.144495010375976562e+00 -2.208590030670166016e+00 -2.220690965652465820e+00 -2.167500734329223633e+00 -2.119441986083984375e+00 -2.129230499267578125e+00 -2.203362703323364258e+00 -2.383827209472656250e+00 -2.427967786788940430e+00 -2.428244113922119141e+00 -2.377257823944091797e+00 -2.309323310852050781e+00 -2.258650064468383789e+00 -2.241545438766479492e+00 -2.229677438735961914e+00 -1.941926717758178711e+00 -1.471647381782531738e+00 -1.806791067123413086e+00 -2.689738750457763672e+00 -2.548926115036010742e+00 -1.895200014114379883e+00 -1.656892180442810059e+00 -1.877643108367919922e+00 -2.175963896245775686e+00 -2.211952703923998342e+00 -2.063890951604662405e+00 -1.932622927160082327e+00 -1.911334889859972463e+00 -2.082225101918993460e+00 -2.279752987356005178e+00 -2.459608334035692678e+00 -2.584357517690477835e+00 -2.604438322515306936e+00 -2.560847300023851858e+00 -2.487151163549242483e+00 -2.391805666417894827e+00 -2.272951858968554006e+00 -2.016886490316210256e+00 -1.576601284475145803e+00 -1.112893360585985647e+00 -8.467825231264214381e-01 -8.838719901750664576e-01 -1.153960245580492483e+00 -1.439985054464159475e+00 -1.556676047773180471e+00 -1.582038539380846487e+00 -1.616864579648790823e+00 -1.648742812604723440e+00 -1.678144591779528128e+00 -1.649204510183153616e+00 -1.553068417043505178e+00 -1.532682078809557424e+00 -1.604763644666491018e+00 -1.753018635244188772e+00 -1.995028990239916311e+00 -2.276761549444017874e+00 -2.654991644353685842e+00 -3.068366306752977835e+00 -3.424672365188598633e+00 -3.594988584518432617e+00 -3.674575328826904297e+00 -3.778435945510864258e+00 -4.014741897583007812e+00 -4.488867759704589844e+00 -4.399460792541503906e+00 -4.350550651550292969e+00 -4.361529350280761719e+00 -4.328494548797607422e+00 -4.370933055877685547e+00 -4.329757213592529297e+00 -4.310711383819580078e+00 -4.307734489440917969e+00 -4.310665130615234375e+00 -4.339787483215332031e+00 -4.384934902191162109e+00 -4.293851375579833984e+00 -4.285077095031738281e+00 -4.282972812652587891e+00 -4.273977279663085938e+00
2.455995082855224609e+00 2.765881061553955078e+00 2.877256393432617188e+00 2.980728387832641602e+00 3.082097053527832031e+00 3.183035612106323242e+00 3.234796285629272461e+00 3.080562114715576172e+00 2.767718315124511719e+00 2.480056047439575195e+00 2.186980009078979492e+00 1.860490798950195312e+00 1.668052434921264648e+00 1.660887479782104492e+00 1.690517783164978027e+00 1.737136244773864746e+00 1.884214878082275391e+00 2.100273132324218750e+00 2.234404802322387695e+00 2.277032375335693359e+00 2.254058837890625000e+00 2.145138740539550781e+00 2.076850652694702148e+00 1.736555933952331543e+00 7.610816359519958496e-01 -3.474712669849395752e-01 -8.453128337860107422e-01 -9.575832486152648926e-01 -1.247536897659301758e+00 -1.553991556167602539e+00 -1.780653595924377441e+00 -1.922822952270507812e+00 -1.951079130172729492e+00 -1.948482871055603027e+00 -1.935528516769409180e+00 -1.972361922264099121e+00 -2.049150943756103516e+00 -2.086199522018432617e+00 -2.053936004638671875e+00 -1.949341654777526855e+00 -1.834634423255920410e+00 -1.888177990913391113e+00 -2.029413461685180664e+00 -2.099912405014038086e+00 -2.245910882949829102e+00 -2.302273511886596680e+00 -2.377126216888427734e+00 -2.439310789108276367e+00 -2.479076147079467773e+00 -2.479271173477172852e+00 -2.418199300765991211e+00 -2.365409612655639648e+00 -2.366942405700683594e+00 -1.955322623252868652e+00 -1.457078933715820312e+00 -1.741168022155761719e+00 -1.867337584495544434e+00 -1.640769481658935547e+00 -1.718643069267272949e+00 -1.937331438064575195e+00 -2.211177110671997070e+00 -2.340517300100145803e+00 -2.157833832235155569e+00 -1.976412552327929006e+00 -2.076368587941942678e+00 -2.342594641179857717e+00 -2.547722834081469045e+00 -2.735785978765306936e+00 -2.878823518753051758e+00 -2.892501115798950195e+00 -2.833719968795776367e+00 -2.721120136709032522e+00 -2.577292221517382131e+00 -2.308564918966112600e+00 -1.918450253934679495e+00 -1.478051084012804495e+00 -1.109573977918444143e+00 -9.614679989526848658e-01 -1.085703032941637503e+00 -1.438806074590502249e+00 -1.811032908887682424e+00 -1.970083492727098928e+00 -1.990605848760424124e+00 -1.990371960134325491e+00 -1.944239753217516409e+00 -1.888621109456835256e+00 -1.862436669797716604e+00 -1.858591574163256155e+00 -1.948866146535692678e+00 -2.091103094548998342e+00 -2.309140699834642874e+00 -2.615283268422899710e+00 -2.939012289047241211e+00 -3.289360761642456055e+00 -3.655055284500122070e+00 -3.973703384399414062e+00 -4.166791915893554688e+00 -4.235614299774169922e+00 -4.288686275482177734e+00 -4.375846385955810547e+00 -4.403582572937011719e+00 -4.488867759704589844e+00 -4.448662281036376953e+00 -4.386304855346679688e+00 -4.382121086120605469e+00 -4.373181819915771484e+00 -4.341674327850341797e+00 -4.310870647430419922e+00 -4.302123546600341797e+00 -4.287590503692626953e+00 -4.311530590057373047e+00 -4.309698104858398438e+00 -4.304259300231933594e+00 -4.296638965606689453e+00 -4.296535491943359375e+00 -4.288917064666748047e+00
2.789309740066528320e+00 2.840818643569946289e+00 2.919943332672119141e+00 3.064507246017456055e+00 3.168761968612670898e+00 3.238867759704589844e+00 3.175369262695312500e+00 2.910629034042358398e+00 2.525237560272216797e+00 2.248896598815917969e+00 2.026486873626708984e+00 1.833160877227783203e+00 1.754545927047729492e+00 1.755053162574768066e+00 1.739018559455871582e+00 1.687838673591613770e+00 1.758945822715759277e+00 2.032729864120483398e+00 2.285847902297973633e+00 2.329374074935913086e+00 2.190886497497558594e+00 2.083932399749755859e+00 2.090096950531005859e+00 1.837018370628356934e+00 1.029954552650451660e+00 2.650318741798400879e-01 4.998392984271049500e-02 -2.369011640548706055e-01 -9.260894656181335449e-01 -1.428884625434875488e+00 -1.652512192726135254e+00 -1.788311481475830078e+00 -1.815925717353820801e+00 -1.880238413810729980e+00 -1.990849375724792480e+00 -2.042894363403320312e+00 -2.053929805755615234e+00 -2.044919967651367188e+00 -1.997579693794250488e+00 -1.884467601776123047e+00 -1.679192066192626953e+00 -1.547780871391296387e+00 -1.669878840446472168e+00 -1.834867000579833984e+00 -1.946843743324279785e+00 -2.092413425445556641e+00 -2.278897523880004883e+00 -2.317067623138427734e+00 -2.236969947814941406e+00 -2.275814771652221680e+00 -2.341476202011108398e+00 -2.345738410949707031e+00 -2.463988065719604492e+00 -2.141389369964599609e+00 -1.278405070304870605e+00 -1.089224457740783691e+00 -1.531484365463256836e+00 -2.026853084564208984e+00 -1.982392787933349609e+00 -2.177261590957641602e+00 -2.821675777435302734e+00 -2.826416033239183889e+00 -2.644074219198046194e+00 -2.560448187322435842e+00 -2.586754816503344045e+00 -2.710479277105150686e+00 -2.849861383438110352e+00 -3.008965969085693359e+00 -3.052572488784790039e+00 -3.005452871322631836e+00 -2.963200569152832031e+00 -2.862937706441698538e+00 -2.705001371831713186e+00 -2.400753754110155569e+00 -2.000719088048754202e+00 -1.649958628148851858e+00 -1.433994549245653616e+00 -1.395563620061693655e+00 -1.560237782926378713e+00 -1.907047646970568167e+00 -2.236248510808763967e+00 -2.396409290761766897e+00 -2.379238146276293264e+00 -2.253830688924608694e+00 -2.121721523732958303e+00 -2.053929346532640920e+00 -2.071995275945482717e+00 -2.166332500905809866e+00 -2.347952383489428030e+00 -2.611342430114746094e+00 -2.880043268203735352e+00 -3.171646595001220703e+00 -3.508009910583496094e+00 -3.869035959243774414e+00 -4.193773269653320312e+00 -4.397330284118652344e+00 -4.507587432861328125e+00 -4.581451416015625000e+00 -4.647925376892089844e+00 -4.734874725341796875e+00 -4.555360794067382812e+00 -4.488787651062011719e+00 -4.511835575103759766e+00 -4.444164276123046875e+00 -4.447986125946044922e+00 -4.421457767486572266e+00 -4.360672950744628906e+00 -4.330042362213134766e+00 -4.318786621093750000e+00 -4.287362098693847656e+00 -4.328913688659667969e+00 -4.314682006835937500e+00 -4.309720039367675781e+00 -4.306613922119140625e+00 -4.310810089111328125e+00 -4.306093215942382812e+00
2.740082502365112305e+00 2.695567607879638672e+00 2.723019123077392578e+00 2.821993112564086914e+00 2.970403671264648438e+00 2.977091073989868164e+00 2.817091941833496094e+00 2.564837694168090820e+00 2.257358789443969727e+00 2.046342611312866211e+00 1.918256998062133789e+00 1.839381098747253418e+00 1.811543107032775879e+00 1.793393611907958984e+00 1.716093540191650391e+00 1.624856710433959961e+00 1.665188670158386230e+00 1.980146884918212891e+00 2.333604097366333008e+00 2.343823194503784180e+00 2.112653732299804688e+00 2.029794931411743164e+00 2.103994369506835938e+00 2.002057790756225586e+00 1.627868175506591797e+00 1.315005898475646973e+00 1.075932145118713379e+00 3.792065978050231934e-01 -5.468186140060424805e-01 -1.231406807899475098e+00 -1.521796464920043945e+00 -1.632542133331298828e+00 -1.641196489334106445e+00 -1.703025579452514648e+00 -1.861132621765136719e+00 -1.984104990959167480e+00 -2.060361385345458984e+00 -2.081401348114013672e+00 -1.954011559486389160e+00 -1.697169303894042969e+00 -1.406305789947509766e+00 -1.239184856414794922e+00 -1.363565444946289062e+00 -1.608794689178466797e+00 -1.571740031242370605e+00 -1.566560626029968262e+00 -1.716441631317138672e+00 -1.831180930137634277e+00 -1.868492603302001953e+00 -1.993233561515808105e+00 -2.128255605697631836e+00 -2.163704156875610352e+00 -2.204159498214721680e+00 -2.183284521102905273e+00 -1.788591623306274414e+00 -1.496101856231689453e+00 -1.949133157730102539e+00 -2.469637393951416016e+00 -2.396369934082031250e+00 -2.549442291259765625e+00 -3.117754697799682617e+00 -3.292953968048095703e+00 -3.141340494155883789e+00 -3.099768400192260742e+00 -3.110978126525878906e+00 -3.145852327346801758e+00 -3.118876457214355469e+00 -3.075567960739135742e+00 -3.049664258956909180e+00 -3.114532947540283203e+00 -3.189990520477294922e+00 -3.126459598541259766e+00 -2.962908524007616506e+00 -2.644934671850023733e+00 -2.255125301809130178e+00 -1.970189708204088674e+00 -1.807558673353014456e+00 -1.807664411992845999e+00 -1.990712183446703420e+00 -2.299653309316454397e+00 -2.591089981527147756e+00 -2.715444820852098928e+00 -2.727472322912035452e+00 -2.664896505803881155e+00 -2.567607402801513672e+00 -2.518241882324218750e+00 -2.579575300216674805e+00 -2.745458841323852539e+00 -2.964802503585815430e+00 -3.210098028182983398e+00 -3.455266952514648438e+00 -3.699191093444824219e+00 -4.035960197448730469e+00 -4.374974250793457031e+00 -4.567635059356689453e+00 -4.416581630706787109e+00 -4.495456218719482422e+00 -4.578988075256347656e+00 -4.654750347137451172e+00 -4.691400051116943359e+00 -4.734874725341796875e+00 -4.569258213043212891e+00 -4.545671463012695312e+00 -4.488867759704589844e+00 -4.491461277008056641e+00 -4.461471557617187500e+00 -4.394630908966064453e+00 -4.360516071319580078e+00 -4.370933055877685547e+00 -4.371028423309326172e+00 -4.338236331939697266e+00 -4.319715023040771484e+00 -4.314571380615234375e+00 -4.311574935913085938e+00 -4.321291923522949219e+00 -4.319971084594726562e+00
2.589087724685668945e+00 2.550327062606811523e+00 2.559197425842285156e+00 2.569487333297729492e+00 2.582764625549316406e+00 2.537188053131103516e+00 2.444421052932739258e+00 2.319649696350097656e+00 2.119517087936401367e+00 2.012903451919555664e+00 1.940250396728515625e+00 1.884286046028137207e+00 1.843445181846618652e+00 1.774778008460998535e+00 1.668467283248901367e+00 1.570622324943542480e+00 1.575047016143798828e+00 1.809019088745117188e+00 2.085927486419677734e+00 2.088875532150268555e+00 1.998151183128356934e+00 2.020349025726318359e+00 2.085556983947753906e+00 2.065702199935913086e+00 1.968451499938964844e+00 1.892693519592285156e+00 1.654630064964294434e+00 8.551151156425476074e-01 -2.097676396369934082e-01 -9.738747477531433105e-01 -1.288798451423645020e+00 -1.277818679809570312e+00 -1.258164525032043457e+00 -1.468662381172180176e+00 -1.853452205657958984e+00 -1.997631311416625977e+00 -1.979398846626281738e+00 -1.966406226158142090e+00 -1.923693180084228516e+00 -1.783729314804077148e+00 -1.609604954719543457e+00 -1.428598761558532715e+00 -1.376796364784240723e+00 -1.451500415802001953e+00 -1.358491539955139160e+00 -1.356992602348327637e+00 -1.465096354484558105e+00 -1.590399742126464844e+00 -1.702609300613403320e+00 -1.814416527748107910e+00 -1.886599779129028320e+00 -1.858070135116577148e+00 -1.862558245658874512e+00 -2.008735656738281250e+00 -2.072225093841552734e+00 -2.150111436843872070e+00 -2.447845458984375000e+00 -2.758621692657470703e+00 -3.030551195144653320e+00 -3.331614255905151367e+00 -3.533183813095092773e+00 -3.479763031005859375e+00 -3.363112449645996094e+00 -3.313102245330810547e+00 -3.325510501861572266e+00 -3.361674547195434570e+00 -3.241637229919433594e+00 -3.070059537887573242e+00 -3.155709505081176758e+00 -3.351693630218505859e+00 -3.416673660278320312e+00 -3.327588558197021484e+00 -3.133023279638109670e+00 -2.853489893407640920e+00 -2.570782440633593069e+00 -2.363098162145433889e+00 -2.239853161306200491e+00 -2.218281048269091116e+00 -2.270891445607958303e+00 -2.537022369832811819e+00 -2.953614729375658499e+00 -3.041000604629516602e+00 -3.062015533447265625e+00 -3.166294336318969727e+00 -3.113205432891845703e+00 -3.089064836502075195e+00 -3.175266265869140625e+00 -3.344067335128784180e+00 -3.553340435028076172e+00 -3.784749746322631836e+00 -3.997431039810180664e+00 -3.796962261199951172e+00 -4.036708354949951172e+00 -4.326189994812011719e+00 -4.471304893493652344e+00 -4.567635059356689453e+00 -4.506701469421386719e+00 -4.570362091064453125e+00 -4.618267059326171875e+00 -4.647453308105468750e+00 -4.669864177703857422e+00 -4.679127693176269531e+00 -4.645117759704589844e+00 -4.557060718536376953e+00 -4.537628650665283203e+00 -4.509735584259033203e+00 -4.425364494323730469e+00 -4.382121086120605469e+00 -4.431555747985839844e+00 -4.401620388031005859e+00 -4.351054191589355469e+00 -4.327713966369628906e+00 -4.322144985198974609e+00 -4.320312023162841797e+00 -4.345417499542236328e+00 -4.384934902191162109e+00
2.433002233505249023e+00 2.409268379211425781e+00 2.406007766723632812e+00 2.324855327606201172e+00 2.238287925720214844e+00 2.245693206787109375e+00 2.218797922134399414e+00 2.205597877502441406e+00 2.145333290100097656e+00 2.092181205749511719e+00 2.024202585220336914e+00 1.961160063743591309e+00 1.892613291740417480e+00 1.810703277587890625e+00 1.717537760734558105e+00 1.623345375061035156e+00 1.570487380027770996e+00 1.609621047973632812e+00 1.753406763076782227e+00 1.874844789505004883e+00 1.930536985397338867e+00 1.971606373786926270e+00 1.990219235420227051e+00 2.008481264114379883e+00 1.977405190467834473e+00 1.874284148216247559e+00 1.709623217582702637e+00 1.367005705833435059e+00 6.843597292900085449e-01 -3.029630482196807861e-01 -8.829456567764282227e-01 -9.996757507324218750e-01 -1.109060406684875488e+00 -1.346289396286010742e+00 -1.690062403678894043e+00 -1.914046168327331543e+00 -1.957428216934204102e+00 -1.915714502334594727e+00 -1.870511174201965332e+00 -1.875004410743713379e+00 -1.864907383918762207e+00 -1.811309456825256348e+00 -1.754118084907531738e+00 -1.681235671043395996e+00 -1.620182752609252930e+00 -1.612297177314758301e+00 -1.572740316390991211e+00 -1.482870459556579590e+00 -1.454059600830078125e+00 -1.514675736427307129e+00 -1.554737210273742676e+00 -1.470422148704528809e+00 -1.453784227371215820e+00 -1.664320945739746094e+00 -1.880270719528198242e+00 -2.096729278564453125e+00 -2.494474411010742188e+00 -3.032279014587402344e+00 -3.551854372024536133e+00 -3.809495449066162109e+00 -3.771444559097290039e+00 -3.612897872924804688e+00 -3.453151702880859375e+00 -3.385305404663085938e+00 -3.371433019638061523e+00 -3.319325923919677734e+00 -3.368380784988403320e+00 -3.481332540512084961e+00 -3.556111097335815430e+00 -3.591248989105224609e+00 -3.573569297790527344e+00 -3.512241125106811523e+00 -3.346973896026611328e+00 -3.077756422490892874e+00 -2.839293020696459280e+00 -2.768759745092211233e+00 -2.811707275838671194e+00 -2.810652273626146780e+00 -2.898631351918993460e+00 -3.200766086578369141e+00 -3.474878787994384766e+00 -3.541566133499145508e+00 -3.599623680114746094e+00 -3.672570228576660156e+00 -3.660714626312255859e+00 -3.687802076339721680e+00 -3.785284757614135742e+00 -3.925457715988159180e+00 -4.106632709503173828e+00 -4.270162105560302734e+00 -4.017447471618652344e+00 -3.997431039810180664e+00 -4.080512523651123047e+00 -4.208233833312988281e+00 -4.365827083587646484e+00 -4.474845409393310547e+00 -4.536050319671630859e+00 -4.567468643188476562e+00 -4.631093978881835938e+00 -4.665003299713134766e+00 -4.693675041198730469e+00 -4.713137626647949219e+00 -4.734874725341796875e+00 -4.605329990386962891e+00 -4.582084178924560547e+00 -4.561755180358886719e+00 -4.466516017913818359e+00 -4.477789402008056641e+00 -4.455600261688232422e+00 -4.420654296875000000e+00 -4.358725070953369141e+00 -4.326187610626220703e+00 -4.313054561614990234e+00 -4.295494556427001953e+00 -4.311530590057373047e+00 -4.321333408355712891e+00
2.246649026870727539e+00 2.345863819122314453e+00 2.375529289245605469e+00 2.282036781311035156e+00 2.144863367080688477e+00 2.135090112686157227e+00 2.164604902267456055e+00 2.186757326126098633e+00 2.187286138534545898e+00 2.201363563537597656e+00 2.129610538482666016e+00 2.057586431503295898e+00 1.988322854042053223e+00 1.889857888221740723e+00 1.781349658966064453e+00 1.681284308433532715e+00 1.626192688941955566e+00 1.614754319190979004e+00 1.652966499328613281e+00 1.775000095367431641e+00 1.891684412956237793e+00 1.935654759407043457e+00 1.920633316040039062e+00 1.916676521301269531e+00 1.903913497924804688e+00 1.751345276832580566e+00 1.548822283744812012e+00 1.398892998695373535e+00 1.158626794815063477e+00 4.825965464115142822e-01 -3.300437927246093750e-01 -6.212881803512573242e-01 -8.889492154121398926e-01 -1.166797041893005371e+00 -1.440675258636474609e+00 -1.654965162277221680e+00 -1.850491046905517578e+00 -1.875909566879272461e+00 -1.781892299652099609e+00 -1.804763555526733398e+00 -1.966161847114562988e+00 -2.107295989990234375e+00 -2.134984493255615234e+00 -2.080891847610473633e+00 -1.991298794746398926e+00 -1.829281687736511230e+00 -1.636676073074340820e+00 -1.485156655311584473e+00 -1.460858106613159180e+00 -1.496418952941894531e+00 -1.406135678291320801e+00 -1.149966120719909668e+00 -9.507942795753479004e-01 -1.081193804740905762e+00 -1.474292516708374023e+00 -1.963726520538330078e+00 -2.548954486846923828e+00 -3.136574745178222656e+00 -3.532543897628784180e+00 -3.740028858184814453e+00 -3.840404272079467773e+00 -3.769175291061401367e+00 -3.625179052352905273e+00 -3.585538387298583984e+00 -3.491805076599121094e+00 -3.401656150817871094e+00 -3.547607421875000000e+00 -3.692644357681274414e+00 -3.771555662155151367e+00 -3.834431171417236328e+00 -3.813423395156860352e+00 -3.761420965194702148e+00 -3.600724697113037109e+00 -3.354691982269287109e+00 -3.105693101882934570e+00 -3.051265001296997070e+00 -3.281871557235717773e+00 -3.484498262405395508e+00 -3.584851980209350586e+00 -3.721339941024780273e+00 -3.870972633361816406e+00 -3.920798540115356445e+00 -3.981387615203857422e+00 -4.084222316741943359e+00 -4.140309333801269531e+00 -4.240444183349609375e+00 -3.909747123718261719e+00 -3.939125061035156250e+00 -4.100750923156738281e+00 -4.188397407531738281e+00 -4.270162105560302734e+00 -4.068563938140869141e+00 -4.114204406738281250e+00 -4.199371814727783203e+00 -4.350459575653076172e+00 -4.455043315887451172e+00 -4.519469738006591797e+00 -4.567635059356689453e+00 -4.592672824859619141e+00 -4.618943691253662109e+00 -4.633344650268554688e+00 -4.648902416229248047e+00 -4.652178764343261719e+00 -4.647447109222412109e+00 -4.625150680541992188e+00 -4.603632926940917969e+00 -4.488867759704589844e+00 -4.513005733489990234e+00 -4.490804672241210938e+00 -4.453818798065185547e+00 -4.380528450012207031e+00 -4.341627120971679688e+00 -4.325694084167480469e+00 -4.287362098693847656e+00 -4.357113361358642578e+00 -4.329656124114990234e+00
2.115881443023681641e+00 2.231269836425781250e+00 2.286249876022338867e+00 2.231676340103149414e+00 2.115581274032592773e+00 2.053362607955932617e+00 2.091310977935791016e+00 2.155061721801757812e+00 2.198961019515991211e+00 2.270030736923217773e+00 2.297222137451171875e+00 2.242433309555053711e+00 2.130607604980468750e+00 1.945130825042724609e+00 1.810157537460327148e+00 1.737077474594116211e+00 1.716101527214050293e+00 1.706367373466491699e+00 1.699179768562316895e+00 1.735436320304870605e+00 1.850716829299926758e+00 1.911478519439697266e+00 1.875944137573242188e+00 1.789497375488281250e+00 1.734343051910400391e+00 1.684789538383483887e+00 1.618550777435302734e+00 1.583590149879455566e+00 1.549211978912353516e+00 1.018190026283264160e+00 1.068760827183723450e-01 -2.888569831848144531e-01 -5.869623422622680664e-01 -9.305979609489440918e-01 -1.270969033241271973e+00 -1.474671125411987305e+00 -1.533713936805725098e+00 -1.506526589393615723e+00 -1.540158510208129883e+00 -1.818157196044921875e+00 -2.084575176239013672e+00 -2.224525451660156250e+00 -2.283690929412841797e+00 -2.226936817169189453e+00 -2.106376171112060547e+00 -1.969918847084045410e+00 -1.835403919219970703e+00 -1.738038420677185059e+00 -1.685245871543884277e+00 -1.559450507164001465e+00 -1.269823074340820312e+00 -9.398126006126403809e-01 -8.192315697669982910e-01 -1.064100861549377441e+00 -1.601394057273864746e+00 -2.209072113037109375e+00 -2.732529401779174805e+00 -3.163403272628784180e+00 -3.496126651763916016e+00 -3.760228872299194336e+00 -3.863301038742065430e+00 -3.824746608734130859e+00 -3.701159954071044922e+00 -3.567507505416870117e+00 -3.558127641677856445e+00 -3.753510713577270508e+00 -3.802418231964111328e+00 -3.771750211715698242e+00 -3.676321029663085938e+00 -3.782889842987060547e+00 -3.884744405746459961e+00 -3.907533645629882812e+00 -3.901757717132568359e+00 -3.847628355026245117e+00 -3.745690107345581055e+00 -3.711143255233764648e+00 -3.824162960052490234e+00 -3.946261167526245117e+00 -4.018550872802734375e+00 -4.078904151916503906e+00 -4.161398887634277344e+00 -4.203831672668457031e+00 -4.287899971008300781e+00 -4.398127079010009766e+00 -4.215775489807128906e+00 -4.190376758575439453e+00 -4.240444183349609375e+00 -4.048718929290771484e+00 -4.068510055541992188e+00 -4.090618610382080078e+00 -4.135854721069335938e+00 -4.148720264434814453e+00 -4.095013618469238281e+00 -3.997431039810180664e+00 -4.289291858673095703e+00 -4.370869159698486328e+00 -4.462292194366455078e+00 -4.548786640167236328e+00 -4.593107700347900391e+00 -4.622831344604492188e+00 -4.646390914916992188e+00 -4.669761180877685547e+00 -4.681031703948974609e+00 -4.689299583435058594e+00 -4.693064212799072266e+00 -4.689996242523193359e+00 -4.573104858398437500e+00 -4.552228450775146484e+00 -4.531779289245605469e+00 -4.496185779571533203e+00 -4.412706851959228516e+00 -4.371190071105957031e+00 -4.370933055877685547e+00 -4.408408164978027344e+00 -4.379481792449951172e+00 -4.339906692504882812e+00
2.099043369293212891e+00 2.200031280517578125e+00 2.179183721542358398e+00 2.086957216262817383e+00 1.979377627372741699e+00 1.885195374488830566e+00 1.863702058792114258e+00 1.947107434272766113e+00 2.129835605621337891e+00 2.312120199203491211e+00 2.339621067047119141e+00 2.281106948852539062e+00 2.145498752593994141e+00 1.934076905250549316e+00 1.847681164741516113e+00 1.823583722114562988e+00 1.813656568527221680e+00 1.804359436035156250e+00 1.784772872924804688e+00 1.755553603172302246e+00 1.801388263702392578e+00 1.879063963890075684e+00 1.806023478507995605e+00 1.635441422462463379e+00 1.580539464950561523e+00 1.643219590187072754e+00 1.748623609542846680e+00 1.837228298187255859e+00 1.915596246719360352e+00 1.641276717185974121e+00 7.708681225776672363e-01 2.673101238906383514e-02 -3.581522405147552490e-01 -6.978278756141662598e-01 -1.083386301994323730e+00 -1.329717278480529785e+00 -1.409235239028930664e+00 -1.376505136489868164e+00 -1.418652534484863281e+00 -1.724289178848266602e+00 -2.068333387374877930e+00 -2.229076862335205078e+00 -2.300896883010864258e+00 -2.355020999908447266e+00 -2.333184003829956055e+00 -2.211462974548339844e+00 -2.038088083267211914e+00 -1.955706954002380371e+00 -1.873330116271972656e+00 -1.676409363746643066e+00 -1.489748477935791016e+00 -1.317751646041870117e+00 -1.278031587600708008e+00 -1.512902021408081055e+00 -2.023944854736328125e+00 -2.643964529037475586e+00 -3.128719806671142578e+00 -3.494440317153930664e+00 -3.751734256744384766e+00 -3.849782228469848633e+00 -3.824514627456665039e+00 -3.844023704528808594e+00 -3.824746608734130859e+00 -3.677046537399291992e+00 -3.753510713577270508e+00 -3.777964591979980469e+00 -3.775892972946166992e+00 -3.750163078308105469e+00 -3.743653774261474609e+00 -3.781318426132202148e+00 -3.858389377593994141e+00 -3.898011922836303711e+00 -3.885639905929565430e+00 -3.831691980361938477e+00 -3.768153905868530273e+00 -3.874899387359619141e+00 -4.218601703643798828e+00 -4.278083324432373047e+00 -4.315596580505371094e+00 -4.339212417602539062e+00 -4.195837020874023438e+00 -4.217710018157958984e+00 -4.296619415283203125e+00 -4.343013763427734375e+00 -4.398127079010009766e+00 -4.190883159637451172e+00 -4.152789115905761719e+00 -4.115612030029296875e+00 -4.108104228973388672e+00 -4.124608993530273438e+00 -4.186436653137207031e+00 -4.229279518127441406e+00 -4.270162105560302734e+00 -4.224786758422851562e+00 -4.276090621948242188e+00 -4.339551448822021484e+00 -4.425994873046875000e+00 -4.529688358306884766e+00 -4.582342147827148438e+00 -4.625378608703613281e+00 -4.653269767761230469e+00 -4.687556743621826172e+00 -4.701672554016113281e+00 -4.713895797729492188e+00 -4.724006175994873047e+00 -4.734874725341796875e+00 -4.610529422760009766e+00 -4.591464519500732422e+00 -4.573199748992919922e+00 -4.540318012237548828e+00 -4.440717220306396484e+00 -4.382121086120605469e+00 -4.451414585113525391e+00 -4.429246902465820312e+00 -4.396690368652343750e+00 -4.348955631256103516e+00
2.111651420593261719e+00 2.163731575012207031e+00 2.036001443862915039e+00 1.900259494781494141e+00 1.823295831680297852e+00 1.792685270309448242e+00 1.759678721427917480e+00 1.817056298255920410e+00 1.991306304931640625e+00 2.225057125091552734e+00 2.355610847473144531e+00 2.283925294876098633e+00 2.099276304244995117e+00 1.958181142807006836e+00 1.890957117080688477e+00 1.870466113090515137e+00 1.884286284446716309e+00 1.901960849761962891e+00 1.889820933341979980e+00 1.851009845733642578e+00 1.797978997230529785e+00 1.807751417160034180e+00 1.704516768455505371e+00 1.574643254280090332e+00 1.571940541267395020e+00 1.687675595283508301e+00 1.865399122238159180e+00 2.014897346496582031e+00 2.117795944213867188e+00 1.899382114410400391e+00 9.994310140609741211e-01 1.094040274620056152e-01 -3.019149899482727051e-01 -5.935635566711425781e-01 -1.001352190971374512e+00 -1.357459306716918945e+00 -1.508541822433471680e+00 -1.455727458000183105e+00 -1.449067831039428711e+00 -1.685562133789062500e+00 -2.006539344787597656e+00 -2.233591079711914062e+00 -2.369050979614257812e+00 -2.406054496765136719e+00 -2.420557737350463867e+00 -2.358359336853027344e+00 -2.261386394500732422e+00 -2.196248769760131836e+00 -2.105439901351928711e+00 -1.947677254676818848e+00 -1.811010003089904785e+00 -1.724201679229736328e+00 -1.750652074813842773e+00 -2.045365333557128906e+00 -2.546410799026489258e+00 -3.095665216445922852e+00 -3.546119213104248047e+00 -3.748587846755981445e+00 -3.711136102676391602e+00 -3.800758361816406250e+00 -3.849782228469848633e+00 -3.791868448257446289e+00 -3.761142015457153320e+00 -3.733922004699707031e+00 -3.723870992660522461e+00 -3.723427295684814453e+00 -3.736331224441528320e+00 -3.761588335037231445e+00 -3.782754182815551758e+00 -3.805477619171142578e+00 -3.832026004791259766e+00 -3.857960462570190430e+00 -3.852924108505249023e+00 -3.871886491775512695e+00 -3.923026084899902344e+00 -4.218601703643798828e+00 -4.248342514038085938e+00 -4.270760536193847656e+00 -4.310964107513427734e+00 -4.327404499053955078e+00 -4.339212417602539062e+00 -4.265764236450195312e+00 -4.277959346771240234e+00 -4.283497810363769531e+00 -4.296298027038574219e+00 -4.297644138336181641e+00 -4.261180877685546875e+00 -4.215410232543945312e+00 -4.240444183349609375e+00 -4.148839473724365234e+00 -4.134340763092041016e+00 -4.157215595245361328e+00 -4.182770729064941406e+00 -4.217155456542968750e+00 -4.251279354095458984e+00 -4.285421371459960938e+00 -4.348235130310058594e+00 -4.473151683807373047e+00 -4.514049530029296875e+00 -4.543552398681640625e+00 -4.567635059356689453e+00 -4.630741596221923828e+00 -4.635089874267578125e+00 -4.643283367156982422e+00 -4.648494243621826172e+00 -4.650683403015136719e+00 -4.644204139709472656e+00 -4.630423069000244141e+00 -4.616994857788085938e+00 -4.590940475463867188e+00 -4.477691650390625000e+00 -4.493844032287597656e+00 -4.476474761962890625e+00 -4.452685832977294922e+00 -4.416651725769042969e+00 -4.360727787017822266e+00
2.112078905105590820e+00 2.011013507843017578e+00 1.873715996742248535e+00 1.805772304534912109e+00 1.825338125228881836e+00 1.807690382003784180e+00 1.744948029518127441e+00 1.763307690620422363e+00 1.862783312797546387e+00 2.034031391143798828e+00 2.196277618408203125e+00 2.211327075958251953e+00 2.119421958923339844e+00 2.043826341629028320e+00 1.948909997940063477e+00 1.899636507034301758e+00 1.879530906677246094e+00 1.873511552810668945e+00 1.907149672508239746e+00 1.954010248184204102e+00 1.888028860092163086e+00 1.719363093376159668e+00 1.640566110610961914e+00 1.628833055496215820e+00 1.642713546752929688e+00 1.751703977584838867e+00 2.038943052291870117e+00 2.231459856033325195e+00 2.291013240814208984e+00 2.079452991485595703e+00 1.217092394828796387e+00 2.969898283481597900e-01 -3.277749717235565186e-01 -6.892737746238708496e-01 -1.076072573661804199e+00 -1.396747231483459473e+00 -1.582016706466674805e+00 -1.654388308525085449e+00 -1.719095230102539062e+00 -1.911244988441467285e+00 -2.159802198410034180e+00 -2.315790176391601562e+00 -2.377556085586547852e+00 -2.417185306549072266e+00 -2.471346616744995117e+00 -2.507282733917236328e+00 -2.523485898971557617e+00 -2.499987602233886719e+00 -2.360381364822387695e+00 -2.168383121490478516e+00 -2.078813791275024414e+00 -2.094081640243530273e+00 -2.226232528686523438e+00 -2.468771934509277344e+00 -2.804817676544189453e+00 -3.279664278030395508e+00 -3.562056303024291992e+00 -3.702788829803466797e+00 -3.748587846755981445e+00 -3.792723178863525391e+00 -3.800562858581542969e+00 -3.832267999649047852e+00 -3.819315671920776367e+00 -3.800061464309692383e+00 -3.783028602600097656e+00 -3.764382839202880859e+00 -3.760236978530883789e+00 -3.765798568725585938e+00 -3.781883478164672852e+00 -3.806307315826416016e+00 -3.833402633666992188e+00 -3.851010322570800781e+00 -3.848377466201782227e+00 -3.912833213806152344e+00 -4.006561756134033203e+00 -4.088642120361328125e+00 -4.167111396789550781e+00 -4.240246772766113281e+00 -4.284401416778564453e+00 -4.288309097290039062e+00 -4.292819499969482422e+00 -4.294144153594970703e+00 -4.298419952392578125e+00 -4.313867568969726562e+00 -4.345920085906982422e+00 -4.370570182800292969e+00 -4.398127079010009766e+00 -4.213293552398681641e+00 -4.190716743469238281e+00 -4.173891067504882812e+00 -4.138328552246093750e+00 -4.141265392303466797e+00 -4.142014026641845703e+00 -4.151842594146728516e+00 -4.148121356964111328e+00 -4.120868682861328125e+00 -3.997431039810180664e+00 -4.416631221771240234e+00 -4.474722862243652344e+00 -4.527773857116699219e+00 -4.581823348999023438e+00 -4.628233909606933594e+00 -4.637316226959228516e+00 -4.648445129394531250e+00 -4.657598972320556641e+00 -4.665708541870117188e+00 -4.665009021759033203e+00 -4.661023616790771484e+00 -4.651370525360107422e+00 -4.629343032836914062e+00 -4.488867759704589844e+00 -4.519806861877441406e+00 -4.502009868621826172e+00 -4.475708484649658203e+00 -4.435958385467529297e+00 -4.367776870727539062e+00
1.965561747550964355e+00 1.866663217544555664e+00 1.831712603569030762e+00 1.805552005767822266e+00 1.813419103622436523e+00 1.787530422210693359e+00 1.735688209533691406e+00 1.744432806968688965e+00 1.773469209671020508e+00 1.875398635864257812e+00 2.003967761993408203e+00 2.036594390869140625e+00 2.056043624877929688e+00 2.065968513488769531e+00 2.006126165390014648e+00 1.941097736358642578e+00 1.907582998275756836e+00 1.879421472549438477e+00 1.866206169128417969e+00 1.868990182876586914e+00 1.838895201683044434e+00 1.689815759658813477e+00 1.617246747016906738e+00 1.708198785781860352e+00 1.756758928298950195e+00 1.781188011169433594e+00 1.996917366981506348e+00 2.291224002838134766e+00 2.477403402328491211e+00 2.407174348831176758e+00 1.767934560775756836e+00 7.233853936195373535e-01 -1.645462960004806519e-01 -6.990402340888977051e-01 -1.054494380950927734e+00 -1.300426125526428223e+00 -1.546473860740661621e+00 -1.791257500648498535e+00 -1.915544867515563965e+00 -1.895305514335632324e+00 -1.919066190719604492e+00 -2.044842481613159180e+00 -2.248449325561523438e+00 -2.465676546096801758e+00 -2.609025955200195312e+00 -2.678128004074096680e+00 -2.679861545562744141e+00 -2.645722627639770508e+00 -2.581377744674682617e+00 -2.525485277175903320e+00 -2.506133317947387695e+00 -2.528484106063842773e+00 -2.717138290405273438e+00 -3.048998355865478516e+00 -3.303789615631103516e+00 -3.683486700057983398e+00 -3.954392433166503906e+00 -3.904117107391357422e+00 -3.868455886840820312e+00 -3.859645366668701172e+00 -3.777566194534301758e+00 -3.825270175933837891e+00 -3.849782228469848633e+00 -3.782364368438720703e+00 -3.775462865829467773e+00 -3.765932083129882812e+00 -3.761362791061401367e+00 -3.776257514953613281e+00 -3.792761087417602539e+00 -3.808054685592651367e+00 -3.842350006103515625e+00 -3.877624511718750000e+00 -3.929379940032958984e+00 -4.218601703643798828e+00 -4.233471870422363281e+00 -4.245901584625244141e+00 -4.262166976928710938e+00 -4.275214672088623047e+00 -4.299336910247802734e+00 -4.312085151672363281e+00 -4.325860500335693359e+00 -4.333308219909667969e+00 -4.339212417602539062e+00 -4.297032833099365234e+00 -4.286640167236328125e+00 -4.277184963226318359e+00 -4.262123584747314453e+00 -4.246810436248779297e+00 -4.222391605377197266e+00 -4.209286689758300781e+00 -4.186257362365722656e+00 -4.193172454833984375e+00 -4.202621936798095703e+00 -4.228626251220703125e+00 -4.249721050262451172e+00 -4.270162105560302734e+00 -4.345776081085205078e+00 -4.391293048858642578e+00 -4.449184417724609375e+00 -4.506082534790039062e+00 -4.570600986480712891e+00 -4.631152153015136719e+00 -4.649142742156982422e+00 -4.665263652801513672e+00 -4.680958271026611328e+00 -4.698515892028808594e+00 -4.703480243682861328e+00 -4.707522869110107422e+00 -4.710485458374023438e+00 -4.712435245513916016e+00 -4.571325778961181641e+00 -4.551927089691162109e+00 -4.535042285919189453e+00 -4.509657382965087891e+00 -4.468741893768310547e+00 -4.389039993286132812e+00
1.803561091423034668e+00 1.826914429664611816e+00 1.885229706764221191e+00 1.824833035469055176e+00 1.804645419120788574e+00 1.789320468902587891e+00 1.740248680114746094e+00 1.755400776863098145e+00 1.774309992790222168e+00 1.808397412300109863e+00 1.880001664161682129e+00 1.944193124771118164e+00 1.994789123535156250e+00 2.058705091476440430e+00 2.054244995117187500e+00 1.986399054527282715e+00 1.952741265296936035e+00 1.920872449874877930e+00 1.898664593696594238e+00 1.876609802246093750e+00 1.753279566764831543e+00 1.612569332122802734e+00 1.616654992103576660e+00 1.674365282058715820e+00 1.732778429985046387e+00 1.755182623863220215e+00 1.981807947158813477e+00 2.295388936996459961e+00 2.463183879852294922e+00 2.408794403076171875e+00 1.936672806739807129e+00 1.116893172264099121e+00 2.159175127744674683e-01 -4.281899929046630859e-01 -8.368834853172302246e-01 -1.256696701049804688e+00 -1.550371289253234863e+00 -1.707520484924316406e+00 -1.698936939239501953e+00 -1.602858424186706543e+00 -1.623960137367248535e+00 -1.834825277328491211e+00 -2.185662031173706055e+00 -2.516148567199707031e+00 -2.654084920883178711e+00 -2.702503204345703125e+00 -2.774128198623657227e+00 -2.866777420043945312e+00 -2.953089237213134766e+00 -3.007847547531127930e+00 -3.043135166168212891e+00 -3.106596946716308594e+00 -3.282458066940307617e+00 -3.576074600219726562e+00 -3.832096099853515625e+00 -4.040735721588134766e+00 -4.195902347564697266e+00 -4.075147628784179688e+00 -3.975467443466186523e+00 -3.925308704376220703e+00 -3.748587846755981445e+00 -3.880544900894165039e+00 -3.841438770294189453e+00 -3.782300472259521484e+00 -3.777018308639526367e+00 -3.769834995269775391e+00 -3.766362190246582031e+00 -3.775751113891601562e+00 -3.790184736251831055e+00 -3.805434226989746094e+00 -3.852188825607299805e+00 -3.901156663894653320e+00 -3.965118408203125000e+00 -4.026269435882568359e+00 -4.083876132965087891e+00 -4.138968467712402344e+00 -4.190755844116210938e+00 -4.236211299896240234e+00 -4.270980834960937500e+00 -4.288240432739257812e+00 -4.298639297485351562e+00 -4.306778430938720703e+00 -4.311238765716552734e+00 -4.313753128051757812e+00 -4.306088447570800781e+00 -4.302965641021728516e+00 -4.302296161651611328e+00 -4.303199291229248047e+00 -4.297229290008544922e+00 -4.278790473937988281e+00 -4.227927207946777344e+00 -4.240444183349609375e+00 -4.218153953552246094e+00 -4.229835510253906250e+00 -4.250507831573486328e+00 -4.285413265228271484e+00 -4.326737880706787109e+00 -4.362996578216552734e+00 -4.409103393554687500e+00 -4.465547561645507812e+00 -4.539190769195556641e+00 -4.619313240051269531e+00 -4.640748500823974609e+00 -4.661315917968750000e+00 -4.683272838592529297e+00 -4.712401390075683594e+00 -4.718612194061279297e+00 -4.724258899688720703e+00 -4.729440212249755859e+00 -4.734874725341796875e+00 -4.605287551879882812e+00 -4.588498592376708984e+00 -4.573140621185302734e+00 -4.550610542297363281e+00 -4.511409759521484375e+00 -4.420604228973388672e+00
1.758283972740173340e+00 1.795549392700195312e+00 1.839913606643676758e+00 1.792495369911193848e+00 1.814226984977722168e+00 1.796229481697082520e+00 1.740721106529235840e+00 1.755113244056701660e+00 1.800055742263793945e+00 1.824672341346740723e+00 1.873039126396179199e+00 1.917095780372619629e+00 1.947764515876770020e+00 2.017299413681030273e+00 2.059412240982055664e+00 2.030750989913940430e+00 2.004268646240234375e+00 2.008108377456665039e+00 2.057466983795166016e+00 2.036311626434326172e+00 1.764970302581787109e+00 1.609587550163269043e+00 1.661890506744384766e+00 1.642097711563110352e+00 1.664179205894470215e+00 1.805385231971740723e+00 2.099341392517089844e+00 2.299574136734008789e+00 2.410583496093750000e+00 2.268500804901123047e+00 1.752916216850280762e+00 1.139706850051879883e+00 4.469560384750366211e-01 -2.116887420415878296e-01 -6.013299226760864258e-01 -9.453849792480468750e-01 -1.202481508255004883e+00 -1.315823435783386230e+00 -1.395017743110656738e+00 -1.490253448486328125e+00 -1.588708639144897461e+00 -1.793634533882141113e+00 -2.128242731094360352e+00 -2.494258165359497070e+00 -2.720159292221069336e+00 -2.835445642471313477e+00 -2.961105585098266602e+00 -3.106736421585083008e+00 -3.246843338012695312e+00 -3.334249973297119141e+00 -3.389028072357177734e+00 -3.539296865463256836e+00 -3.738758563995361328e+00 -3.924807548522949219e+00 -4.116154193878173828e+00 -4.252676010131835938e+00 -4.163104534149169922e+00 -4.195902347564697266e+00 -4.105891704559326172e+00 -4.058388710021972656e+00 -3.974047899246215820e+00 -3.933429718017578125e+00 -3.873019933700561523e+00 -3.796460151672363281e+00 -3.800016164779663086e+00 -3.790561199188232422e+00 -3.780242681503295898e+00 -3.785005807876586914e+00 -3.794717550277709961e+00 -3.806716680526733398e+00 -3.877276897430419922e+00 -3.943605422973632812e+00 -4.004510879516601562e+00 -4.060734748840332031e+00 -4.112511634826660156e+00 -4.160220623016357422e+00 -4.202491760253906250e+00 -4.237295150756835938e+00 -4.264967918395996094e+00 -4.286616802215576172e+00 -4.299786567687988281e+00 -4.310640335083007812e+00 -4.319501399993896484e+00 -4.331224918365478516e+00 -4.336696147918701172e+00 -4.344352722167968750e+00 -4.357121467590332031e+00 -4.371539115905761719e+00 -4.384348869323730469e+00 -4.398127079010009766e+00 -4.234277725219726562e+00 -4.221825122833251953e+00 -4.211227893829345703e+00 -4.210618019104003906e+00 -4.216767787933349609e+00 -4.240910530090332031e+00 -4.271925449371337891e+00 -4.291150093078613281e+00 -4.314135551452636719e+00 -4.346723079681396484e+00 -4.407342433929443359e+00 -4.524597167968750000e+00 -4.541745662689208984e+00 -4.555593967437744141e+00 -4.567635059356689453e+00 -4.622199058532714844e+00 -4.637256145477294922e+00 -4.639425277709960938e+00 -4.640177249908447266e+00 -4.638842105865478516e+00 -4.634397029876708984e+00 -4.622305393218994141e+00 -4.610183715820312500e+00 -4.591342926025390625e+00 -4.555256843566894531e+00 -4.447349548339843750e+00
1.771410822868347168e+00 1.815461277961730957e+00 1.803829550743103027e+00 1.760631918907165527e+00 1.783064723014831543e+00 1.762204170227050781e+00 1.748463392257690430e+00 1.734133601188659668e+00 1.776346206665039062e+00 1.834751725196838379e+00 1.908430457115173340e+00 1.957538604736328125e+00 1.929172992706298828e+00 1.964812278747558594e+00 2.048464536666870117e+00 2.093140840530395508e+00 2.137918233871459961e+00 2.211004257202148438e+00 2.265026569366455078e+00 2.146895170211791992e+00 1.819701671600341797e+00 1.657419204711914062e+00 1.665627956390380859e+00 1.654883027076721191e+00 1.747211456298828125e+00 1.978911757469177246e+00 2.199520826339721680e+00 2.288405418395996094e+00 2.316534996032714844e+00 2.044232130050659180e+00 1.480984449386596680e+00 9.082501530647277832e-01 3.565785586833953857e-01 -9.207241982221603394e-02 -4.452364146709442139e-01 -8.467558622360229492e-01 -1.154998183250427246e+00 -1.230537652969360352e+00 -1.343544244766235352e+00 -1.552803993225097656e+00 -1.742730498313903809e+00 -1.972314238548278809e+00 -2.297092914581298828e+00 -2.621780157089233398e+00 -2.862985134124755859e+00 -2.998186826705932617e+00 -3.078464746475219727e+00 -3.155443906784057617e+00 -3.318625688552856445e+00 -3.508189439773559570e+00 -3.682129621505737305e+00 -3.890370130538940430e+00 -4.055204868316650391e+00 -4.181368350982666016e+00 -4.256322383880615234e+00 -4.208384037017822266e+00 -4.252676010131835938e+00 -4.182316780090332031e+00 -4.176546573638916016e+00 -4.135524749755859375e+00 -4.046970367431640625e+00 -3.997260570526123047e+00 -3.930664062500000000e+00 -3.800301551818847656e+00 -3.837526321411132812e+00 -3.849782228469848633e+00 -3.839631319046020508e+00 -3.823903560638427734e+00 -3.850583553314208984e+00 -3.886813163757324219e+00 -4.218601703643798828e+00 -4.226037025451660156e+00 -4.232658386230468750e+00 -4.240035533905029297e+00 -4.247071266174316406e+00 -4.255782127380371094e+00 -4.263825416564941406e+00 -4.279148101806640625e+00 -4.293410778045654297e+00 -4.306740760803222656e+00 -4.314169883728027344e+00 -4.321960449218750000e+00 -4.327616691589355469e+00 -4.332793712615966797e+00 -4.336260318756103516e+00 -4.339212417602539062e+00 -4.297239780426025391e+00 -4.285709381103515625e+00 -4.274329662322998047e+00 -4.261163711547851562e+00 -4.244987010955810547e+00 -4.228115081787109375e+00 -4.208416938781738281e+00 -4.194678783416748047e+00 -4.175920486450195312e+00 -4.173857688903808594e+00 -4.167934417724609375e+00 -4.166681766510009766e+00 -4.157260894775390625e+00 -4.129487514495849609e+00 -3.997431039810180664e+00 -4.485282897949218750e+00 -4.527371883392333984e+00 -4.561996936798095703e+00 -4.595490932464599609e+00 -4.619546890258789062e+00 -4.644624710083007812e+00 -4.649734973907470703e+00 -4.654254436492919922e+00 -4.657860755920410156e+00 -4.660194873809814453e+00 -4.655387878417968750e+00 -4.647548198699951172e+00 -4.634244441986083984e+00 -4.605692386627197266e+00 -4.483279705047607422e+00
1.788507699966430664e+00 1.844406247138977051e+00 1.870766520500183105e+00 1.927485466003417969e+00 2.014978885650634766e+00 1.931932210922241211e+00 1.778708815574645996e+00 1.678959488868713379e+00 1.727284669876098633e+00 1.813449978828430176e+00 1.929019451141357422e+00 2.033541917800903320e+00 1.978998661041259766e+00 1.873956441879272461e+00 1.847713351249694824e+00 1.868379712104797363e+00 2.016980171203613281e+00 2.348144531250000000e+00 2.480895280838012695e+00 2.268305540084838867e+00 1.941874146461486816e+00 1.800770163536071777e+00 1.767851471900939941e+00 1.780230283737182617e+00 1.899682879447937012e+00 2.082958221435546875e+00 2.227398633956909180e+00 2.266633033752441406e+00 2.191883325576782227e+00 1.772642135620117188e+00 1.223766446113586426e+00 7.629687190055847168e-01 3.914169371128082275e-01 -7.984114810824394226e-03 -5.407635569572448730e-01 -1.101838469505310059e+00 -1.425694346427917480e+00 -1.427418351173400879e+00 -1.483900547027587891e+00 -1.769203543663024902e+00 -2.073604345321655273e+00 -2.318248033523559570e+00 -2.560004472732543945e+00 -2.791407585144042969e+00 -2.952500104904174805e+00 -3.077747106552124023e+00 -3.204036712646484375e+00 -3.369772672653198242e+00 -3.577592849731445312e+00 -3.760625600814819336e+00 -3.872287273406982422e+00 -4.038785457611083984e+00 -4.209358692169189453e+00 -4.299699306488037109e+00 -4.245796680450439453e+00 -4.256322383880615234e+00 -4.224703788757324219e+00 -4.221510887145996094e+00 -4.203894138336181641e+00 -4.195902347564697266e+00 -4.121782302856445312e+00 -4.077818870544433594e+00 -4.012742519378662109e+00 -3.748587846755981445e+00 -3.924492835998535156e+00 -3.887068271636962891e+00 -3.851584196090698242e+00 -3.832055807113647461e+00 -3.864984273910522461e+00 -3.907347202301025391e+00 -3.954247951507568359e+00 -4.000874042510986328e+00 -4.047384262084960938e+00 -4.093179225921630859e+00 -4.138049125671386719e+00 -4.177028656005859375e+00 -4.212862968444824219e+00 -4.244557857513427734e+00 -4.265444755554199219e+00 -4.282052040100097656e+00 -4.294963836669921875e+00 -4.304532527923583984e+00 -4.310195446014404297e+00 -4.313226222991943359e+00 -4.313938617706298828e+00 -4.312741279602050781e+00 -4.304974079132080078e+00 -4.295902729034423828e+00 -4.288523674011230469e+00 -4.280728816986083984e+00 -4.271686077117919922e+00 -4.265332698822021484e+00 -4.256364822387695312e+00 -4.244103431701660156e+00 -4.224866390228271484e+00 -4.230791568756103516e+00 -4.237782955169677734e+00 -4.249503135681152344e+00 -4.259941577911376953e+00 -4.270162105560302734e+00 -4.422977447509765625e+00 -4.466439723968505859e+00 -4.511117458343505859e+00 -4.549926280975341797e+00 -4.589499473571777344e+00 -4.621677398681640625e+00 -4.653302669525146484e+00 -4.660799503326416016e+00 -4.668059825897216797e+00 -4.675140857696533203e+00 -4.682084560394287109e+00 -4.679748058319091797e+00 -4.674962043762207031e+00 -4.665259361267089844e+00 -4.641380310058593750e+00 -4.488867759704589844e+00
